# .PCD v0.7 - Point Cloud Data file format
VERSION 0.7
FIELDS x y z intensity
SIZE 4 4 4 4
TYPE F F F F
COUNT 1 1 1 1
WIDTH 1173
HEIGHT 1
VIEWPOINT 0 0 0 1 0 0 0
POINTS 1173
DATA ascii
2.4463429 5.6474576 -1.3543999 69.485718
2.5494707 5.647059 -1.3536178 70.411766
2.6489415 5.6450887 -1.352971 74.764709
2.7499352 5.6476769 -1.3526454 80.935478
2.8485999 5.653367 -1.3526336 82.500008
2.9494376 5.6494379 -1.3524691 84.625
3.0489998 5.6466455 -1.3528713 83.322578
3.1505005 5.6520343 -1.3532003 82.366669
3.2481997 5.6502004 -1.353267 84.133339
3.3501723 5.6478977 -1.3536553 85.517242
3.4521723 5.6455173 -1.354069 84.793106
3.5467999 5.6492796 -1.35404 81.599998
3.6454828 5.6473098 -1.3542069 81.172417
3.747261 5.6525655 -1.3551301 83.521744
3.8463461 5.6521926 -1.355846 87.384621
3.9260001 5.6626372 -1.3560909 83.636368
5.48 5.6127501 -1.354 80.75
5.5502934 5.6472349 -1.3537648 81.823532
5.6442776 5.6568885 -1.3536112 82.333336
5.7505388 5.652462 -1.3539231 81.307693
5.8518825 5.6468825 -1.3541176 83.588234
5.9544163 5.6634588 -1.3434584 76.458336
6.0387058 5.662118 -1.350353 78.705879
6.1486473 5.6418238 -1.354941 82.294121
6.2372222 5.6683335 -1.3534445 78.888893
6.4659996 5.6143336 -1.353 90
6.5497003 5.6595001 -1.3517001 83.900002
6.9573336 5.6385002 -1.3555001 75.333336
7.0510001 5.6413002 -1.3532001 78.599998
7.1528335 5.6668334 -1.3533334 77.333336
7.2530003 5.6620002 -1.357 70.5
7.3456993 5.6445999 -1.3469001 72.200005
-10.808889 5.7687778 -1.326 135.66667
-10.769359 5.7356434 -1.3450714 121.71429
-10.647667 5.7419996 -1.3628334 72.166672
-10.533333 5.7663336 -1.3603333 68.666672
-10.4295 5.7477503 -1.3594999 69
-10.349251 5.7460003 -1.3594999 69.5
-10.242334 5.7583332 -1.3603333 69
-10.1445 5.7624998 -1.3609999 66.25
-10.058001 5.763 -1.36 63.5
-9.9547501 5.7540002 -1.3585 62.75
-9.8473339 5.7503333 -1.359 63
-9.7434998 5.7470007 -1.3582499 63
-9.6407499 5.7519999 -1.3587499 63.25
-9.5340004 5.7453337 -1.3580002 61.333336
-9.4336672 5.7631674 -1.3568333 61
-9.3383331 5.7563334 -1.3551668 62.166668
-9.2532854 5.7521429 -1.3547143 64
-9.1619997 5.7513342 -1.3546667 65.166672
-9.0586672 5.7491112 -1.3547777 65.888893
-8.9542503 5.7471251 -1.354625 66
-8.8545713 5.738286 -1.3541429 66.428574
-8.7496243 5.7329998 -1.353375 66.375
-8.6485996 5.7478004 -1.3528001 68.599998
-8.5580006 5.731286 -1.3524287 68.14286
-8.4561996 5.756 -1.3526001 68.800003
-8.3504 5.7452002 -1.353 68
-8.2421255 5.7687502 -1.353125 68.375
-8.1413755 5.7616253 -1.3525 66.5
-8.0428753 5.752625 -1.351125 66.875
-7.9565716 5.7440004 -1.3505715 67.285721
-7.8513002 5.7356 -1.3500003 69.300003
-7.7492995 5.7364001 -1.3507999 70.400002
-7.6539998 5.7331252 -1.351 69.375
-7.5594292 5.7324286 -1.3505714 68.571434
-7.4497004 5.7648997 -1.3499 68.800003
-7.3416662 5.7544441 -1.3491111 70.888893
-7.2508883 5.7441111 -1.3491111 72.111115
-7.1516371 5.7469091 -1.3489091 73.272728
-7.0500002 5.7463083 -1.3495384 72
-6.9494119 5.7524118 -1.3500589 71.352943
-6.8509231 5.7480774 -1.3503078 70.46154
-6.7533641 5.7556367 -1.3500003 69.272728
-6.6486659 5.7524166 -1.3505834 69.75
-6.5451822 5.7445459 -1.3518182 71.454544
-6.4510007 5.7445459 -1.3523637 71.272728
-6.3534007 5.7523999 -1.3533334 71.333336
-6.2507229 5.7417779 -1.3527223 75
-6.1548004 5.7447333 -1.3536001 76.066673
-6.0482512 5.74825 -1.3529166 73
-5.9517641 5.7520003 -1.3521175 73.117645
-5.855062 5.7435622 -1.3516874 74.3125
-5.745615 5.7476931 -1.3516922 74.769234
-5.6490555 5.7507229 -1.3511665 74.777779
-5.5559378 5.7436256 -1.3517499 74.9375
-5.4497328 5.7520676 -1.3519334 74.400002
-5.3526506 5.7512503 -1.3518499 75.300003
-5.2531333 5.7494001 -1.3512666 77.333336
-5.1503887 5.7496667 -1.3516666 78.055557
-5.0511432 5.7428565 -1.3522379 79.476189
-4.9465623 5.7501249 -1.35325 79.4375
-4.8495502 5.7515998 -1.3539001 79.599998
-4.7521052 5.7501054 -1.354 79.157898
-4.6497145 5.750762 -1.354 80.380951
-4.5537271 5.750546 -1.3538183 79.545456
-4.4535656 5.7438254 -1.3533915 81.304352
-4.3546796 5.7543602 -1.3532401 84
-4.2510872 5.7453918 -1.3529134 82.434784
-4.1506667 5.744875 -1.3522081 83.541672
-4.0493202 5.7507195 -1.3521199 81.959999
-3.9503334 5.7474995 -1.3521665 81.458336
-3.8475521 5.7449656 -1.3525864 82.758621
-3.7485416 5.7474585 -1.3532085 81.625
-3.6492062 5.7492061 -1.3541379 79.034485
-3.5471156 5.7493472 -1.3552688 76.269234
-3.4458334 5.7462664 -1.3559996 77.133339
-3.3468623 5.7502069 -1.3566551 79.827583
-3.2526896 5.7488971 -1.3570343 80.827583
-3.1509356 5.7479343 -1.3565158 81.354836
-3.0482671 5.749167 -1.3552662 80.966667
-2.9507928 5.7501731 -1.3542414 82.586205
-2.8502941 5.7503819 -1.3540589 83.588234
-2.7493031 5.7478786 -1.354091 82.36364
-2.6480308 5.7494998 -1.3541563 79.90625
-2.551419 5.7465158 -1.3548384 79.225807
-2.4504514 5.7498059 -1.3549029 77.6129
-2.3506365 5.7470913 -1.3547574 77.909096
-2.2510626 5.7470312 -1.354781 78.125
-2.1512284 5.7484851 -1.3557994 79.828575
-2.0495555 5.74825 -1.3568608 80.138893
-1.9517435 5.750308 -1.357513 78.846153
-1.8464872 5.7467184 -1.3572563 78.051285
-1.7486216 5.7494597 -1.3568915 78.432434
-1.65115 5.7527008 -1.3565495 78.25
-1.5514359 5.7509232 -1.3560762 78.948715
-1.4533334 5.7480268 -1.3564868 77.717949
-1.3518252 5.7484756 -1.3572749 76.75
-1.24935 5.7511744 -1.3582004 78.224998
-1.1490003 5.7517953 -1.3586926 76.897438
-1.0498204 5.7476921 -1.3588208 75.256409
-0.94959992 5.748075 -1.3589753 75.700005
-0.84919047 5.7487388 -1.3590003 76.380951
-0.74905008 5.7485757 -1.3590003 76.025002
-0.65027505 5.7491503 -1.3589504 76.375
-0.54960471 5.750535 -1.3593491 76.860466
-0.4497073 5.7491946 -1.3590246 77.487801
-0.3511591 5.7474318 -1.358546 77.772728
-0.25183725 5.7497211 -1.357884 78.81395
-0.15045455 5.7484994 -1.3570223 78.909096
-0.050309516 5.750762 -1.3569518 77.952385
0.042346165 5.7464228 -1.3562304 78.346153
0.14909525 5.7500472 -1.3564994 77.309525
0.24795352 5.7504654 -1.3568367 77.325584
0.34900004 5.7473812 -1.3574048 79.761909
0.44890907 5.7487044 -1.3572953 77.386368
0.54967439 5.7502565 -1.3569529 76.139534
0.65099996 5.7506666 -1.3565948 76.166672
0.74999994 5.7485251 -1.3564744 78.599998
0.84923261 5.7487903 -1.356488 78.790695
0.95005006 5.7467508 -1.3567246 79.325005
1.0495 5.7476997 -1.3566245 78.050003
1.1498749 5.750175 -1.3567246 78
1.2487439 5.7497697 -1.3564612 76.358978
1.3476669 5.75036 -1.3562044 76.410255
1.4471999 5.7504263 -1.3558494 75.724998
1.5462897 5.7513161 -1.3557889 75.157898
1.645795 5.7491274 -1.3553329 74.128204
1.747921 5.7510266 -1.3552628 73.289474
1.8474374 5.7502189 -1.356625 73.53125
1.9470539 5.7478652 -1.3588922 74.243248
2.0514002 5.7472286 -1.360029 71.714287
2.1507061 5.7492046 -1.3595002 71.147057
2.2485759 5.7457275 -1.3578486 69.060608
2.349086 5.7521715 -1.3562852 68.628571
2.4515152 5.7467275 -1.3551209 69.21212
2.5503438 5.7484064 -1.3541563 70.15625
2.6499412 5.7481761 -1.3535001 72.294121
2.7492187 5.7453432 -1.3530315 77.34375
2.8522577 5.7506456 -1.3529358 84.580643
2.9506552 5.7484837 -1.3527932 84.931038
3.0495174 5.7460694 -1.3527589 84.275864
3.1492503 5.7503223 -1.3532503 83.714287
3.2494235 5.7500782 -1.3538078 83.846153
3.3479998 5.7472219 -1.3540372 83.888893
3.4470372 5.7504816 -1.3547035 84.925926
3.5472691 5.7519622 -1.3556534 85.230774
3.647522 5.7491741 -1.3556954 79.869568
3.7503214 5.749393 -1.3551069 80.821434
3.8545833 5.7492924 -1.3553747 87.708336
3.9460437 5.7512612 -1.355391 89.782608
4.0092497 5.7820001 -1.355 83
5.5823336 5.7243338 -1.3533334 79.333336
5.6551538 5.7509227 -1.3530769 80.307693
5.7474995 5.7451105 -1.3529446 80.722221
5.8430004 5.7546005 -1.3532667 79.933334
5.9587893 5.7405791 -1.3470527 76.842102
6.0472226 5.7347217 -1.3396112 71.444443
6.1439576 5.7560868 -1.3394783 77.652176
6.2475843 5.7521663 -1.3544167 79.25
6.3347144 5.7651429 -1.3538572 75.285721
6.592 5.7090001 -1.353 86
6.6538343 5.7406669 -1.3538334 80
6.8476667 5.7635555 -1.3642222 75.666664
6.9445 5.7447495 -1.3575 74
7.0639997 5.7395554 -1.3549999 77.111115
7.1699996 5.7484002 -1.3554 77
7.2528572 5.7515712 -1.355143 74.428574
7.3253336 5.7756667 -1.3520001 73.333336
7.4510002 5.7717505 -1.358 83.25
-10.834151 5.8471503 -1.3312001 138.65001
-10.763801 5.8396001 -1.3636 87.400002
-10.648001 5.8460007 -1.3629999 68.666672
-10.539249 5.8645 -1.36125 67.75
-10.450834 5.8585005 -1.3601668 68.833336
-10.342125 5.8572502 -1.3605 69.125
-10.242001 5.8601665 -1.3609999 67.333336
-10.150001 5.8585005 -1.3606666 64.333336
-10.044333 5.8479996 -1.3596667 62.833336
-9.9476671 5.8418331 -1.3590001 63.166668
-9.8518753 5.8443747 -1.3590001 63.375
-9.745285 5.8391433 -1.3590001 64
-9.6558332 5.843667 -1.3603333 63.833336
-9.5591421 5.8425717 -1.3602859 61.714287
-9.4562502 5.8450003 -1.3575 60.5
-9.3427505 5.8607497 -1.3559999 62.5
-9.2639999 5.8559999 -1.35575 63.5
-9.1585999 5.8376002 -1.3554 65
-9.0455723 5.8618574 -1.3561428 65.571434
-8.9514999 5.8573332 -1.3553333 66.166672
-8.8493328 5.8532224 -1.3544445 67.222221
-8.7492867 5.8434286 -1.3537143 68.428574
-8.649251 5.8397503 -1.353375 68.875
-8.5434456 5.8379998 -1.353889 69.444443
-8.4412861 5.8392859 -1.3542857 68.714287
-8.3487501 5.8297501 -1.354125 68.75
-8.2522001 5.8415999 -1.3552001 67.599998
-8.1418333 5.8645 -1.3545001 66.5
-8.0441256 5.8612499 -1.3535 66.25
-7.9443746 5.8496256 -1.35225 67.125
-7.8530002 5.8444443 -1.3522222 68.444443
-7.7503343 5.8425555 -1.3523334 68.333336
-7.6472001 5.8336997 -1.3526 69.099998
-7.5483332 5.8370004 -1.3526667 68.777779
-7.4487782 5.8688889 -1.352 69.444443
-7.3492222 5.8521109 -1.3508888 69.888893
-7.2522502 5.8412495 -1.348875 70.5
-7.1576667 5.8313332 -1.3482224 70.888893
-7.0583076 5.8535395 -1.3487693 70.769234
-6.9490004 5.8558183 -1.3489093 72
-6.849 5.8563638 -1.3494546 70
-6.7463999 5.8444996 -1.3496002 70
-6.6508002 5.8352003 -1.3499001 70.900002
-6.5496254 5.8474374 -1.3511875 71.125
-6.4504704 5.8490586 -1.3521763 72.235298
-6.3504162 5.8470001 -1.352 71.916672
-6.2438183 5.8372726 -1.3510001 73.727272
-6.1459374 5.8495002 -1.352 74.5
-6.0492501 5.8468747 -1.3521248 74.25
-5.9461665 5.8535838 -1.3518333 74.333336
-5.8444123 5.8504119 -1.3510587 75.705879
-5.7516465 5.8452353 -1.351294 74.823532
-5.6486664 5.8450007 -1.3510001 75.666672
-5.5512772 5.8497777 -1.3511665 76.277779
-5.4531174 5.8466473 -1.3511764 77.411766
-5.3437328 5.8535337 -1.3514667 77.200005
-5.2524996 5.8472781 -1.3513887 79.444443
-5.1536112 5.8453889 -1.3520554 80.722221
-5.0476999 5.8517995 -1.3528 80.200005
-4.954278 5.8433337 -1.3533334 79.888893
-4.8491502 5.8518996 -1.3533502 80.050003
-4.7530527 5.8425794 -1.3539474 80.842102
-4.6509504 5.8527999 -1.3533502 80.75
-4.5504494 5.8543005 -1.3534502 80.700005
-4.4495711 5.8457623 -1.3530002 81.619049
-4.3481112 5.853611 -1.3530002 81.5
-4.2516818 5.8477731 -1.3529092 82.5
-4.148818 5.8462276 -1.3527727 83.318184
-4.0491428 5.8524771 -1.3528097 82.666672
-3.9521818 5.8484998 -1.3532275 80.5
-3.8525915 5.8467727 -1.3532274 80.36364
-3.7497199 5.8499188 -1.3538002 81.279999
-3.6531672 5.8511672 -1.3544582 76.583336
-3.5512409 5.849483 -1.3551722 76.172417
-3.4477694 5.8510776 -1.3558073 76.730774
-3.3509614 5.848269 -1.3564615 79.230774
-3.2501791 5.8474288 -1.3562855 80.357147
-3.1488619 5.8498974 -1.3555169 80.620689
-3.0517144 5.8477149 -1.3545356 80.964287
-2.9509354 5.8510323 -1.3539677 82
-2.850724 5.84969 -1.3533106 81.931038
-2.7503545 5.8490644 -1.3539032 82.064514
-2.6513224 5.8492899 -1.3546126 80.645157
-2.5494545 5.8485451 -1.3554238 82.606064
-2.4489706 5.8483534 -1.3556465 80.382355
-2.3512332 5.8473673 -1.3558996 79.233337
-2.2520573 5.8510284 -1.3563994 78.714287
-2.1515758 5.8464551 -1.3564239 78.393944
-2.0498612 5.8495002 -1.3569441 77.944443
-1.9501145 5.8522863 -1.3570282 79.457146
-1.8523785 5.8467841 -1.3569456 77.75676
-1.7512161 5.8517022 -1.3561885 77.729729
-1.6524285 5.8503709 -1.3558565 77.742859
-1.5520542 5.8491364 -1.3561075 78.62162
-1.4518888 5.8498621 -1.3576112 77.555557
-1.3513888 5.8512502 -1.3587224 76.833336
-1.2505833 5.8491945 -1.3587781 77.027779
-1.1493076 5.8488727 -1.3588209 77.051285
-1.0502051 5.8482828 -1.3590772 75.487183
-0.95242101 5.8486309 -1.359316 74.315788
-0.85199994 5.8491497 -1.3591503 73.575005
-0.75042498 5.8468251 -1.3590753 74.724998
-0.65017062 5.8506341 -1.3592441 76.31707
-0.54990005 5.8500495 -1.3594003 76.275002
-0.45076188 5.850976 -1.3592147 76.5
-0.35017502 5.8469253 -1.3584255 76.075005
-0.25082925 5.851511 -1.3576341 78.170731
-0.15154997 5.8498998 -1.3570246 78.099998
-0.050976191 5.8509765 -1.3569995 78.119049
0.041862741 5.8468828 -1.3566073 77.117653
0.14942858 5.8504286 -1.3569281 77.428574
0.25051281 5.849205 -1.3569739 76.666664
0.34934148 5.8474627 -1.3569994 78.560974
0.45053661 5.8487072 -1.3569994 76.463409
0.54844725 5.8494735 -1.3569995 74.473686
0.64995235 5.853024 -1.3569757 75.071426
0.74923688 5.8478413 -1.3569732 76.342102
0.84853846 5.8499484 -1.3569995 76.794876
0.95019501 5.8488545 -1.3569994 79.63414
1.0512563 5.849103 -1.3569995 78.333336
1.1502163 5.8497562 -1.3569996 78.513512
1.2493684 5.8491054 -1.3568679 78.078949
1.349184 5.8509741 -1.3562361 77.5
1.4465716 5.8484859 -1.3559994 76.51429
1.5477837 5.8496485 -1.3556751 75.027031
1.6510001 5.848948 -1.3549471 76.157898
1.7511517 5.8453336 -1.3549694 72.727272
1.8514572 5.8503718 -1.357143 72.51429
1.9518183 5.8456068 -1.3589699 73.666672
2.0492284 5.8489995 -1.360086 72.828575
2.1483142 5.8492002 -1.359943 70.599998
2.2507875 5.8471217 -1.3591821 70.090912
2.3491671 5.8530006 -1.3579336 69.333336
2.4517741 5.8454514 -1.3563544 69.322578
2.5508749 5.8488431 -1.3550622 69.40625
2.6493216 5.849822 -1.3541785 70.964287
2.7480669 5.8497005 -1.3537002 73.100006
2.8459034 5.8508706 -1.3531616 80.032257
2.9498518 5.8438892 -1.3531114 83.666664
3.0488927 5.8491077 -1.3535001 82.857147
3.1496294 5.8471861 -1.3540741 84.185188
3.2505004 5.85004 -1.3546922 83.730774
3.3490005 5.8502002 -1.3553196 83.439995
3.4472091 5.8509998 -1.3556664 82.916672
3.548044 5.8489566 -1.356043 87.782608
3.6502411 5.8463101 -1.3555514 85.689651
3.7512724 5.8504086 -1.355318 74.090912
3.8475201 5.8530393 -1.3555197 85.959999
3.9449999 5.8497586 -1.3549598 90.919998
4.0372 5.8569994 -1.3541502 85.150002
5.6752501 5.8232503 -1.353 78.25
5.7474546 5.8441815 -1.3529999 80.272728
5.8505998 5.8504672 -1.3529334 79.000008
5.9515882 5.8500595 -1.3529413 79.823532
6.046 5.8470998 -1.3533 80
6.1726665 5.8183336 -1.321 75.333336
6.2503848 5.830616 -1.3366154 74.92308
6.3468184 5.8464546 -1.3549999 79.36364
6.428833 5.8596668 -1.3541667 77.333336
6.5717497 5.8449998 -1.36025 75.25
6.6158004 5.8649998 -1.3626001 73.599998
6.7490001 5.8301668 -1.352 76.333336
6.9440002 5.8514996 -1.354875 78.875
7.0464292 5.8780003 -1.3571428 77.714287
7.1620002 5.8115001 -1.3564999 72
7.2493339 5.8346672 -1.3563333 75
7.3478336 5.843667 -1.3555 77.666672
7.5540004 5.8540001 -1.3546667 81
7.6069999 5.8850002 -1.354 69
-10.862375 5.9536247 -1.3383334 139.20834
-10.761001 5.9508004 -1.3662001 74.800003
-10.6562 5.9489999 -1.3637999 67.800003
-10.565001 5.9400001 -1.3616667 68
-10.46175 5.9597502 -1.3615 68.75
-10.356667 5.9603338 -1.3609999 67.666672
-10.25025 5.9592505 -1.36225 64.75
-10.141 5.9475002 -1.3610001 62.5
-10.051333 5.9373336 -1.3586668 62
-9.9577494 5.9412498 -1.3592499 63.25
-9.8586674 5.966167 -1.3595002 63
-9.7585726 5.9668574 -1.3598572 63.714287
-9.6545715 5.9532862 -1.3612857 63.285717
-9.5483332 5.9603338 -1.36 60.666668
-9.4358578 5.9481435 -1.3580002 61.57143
-9.3473997 5.9450002 -1.3574001 63
-9.2447147 5.9394293 -1.3565714 64.428574
-9.1445723 5.9262862 -1.3568572 65.14286
-9.0540009 5.948667 -1.3563333 65
-8.9505997 5.9551997 -1.3558 66.200005
-8.8567152 5.963572 -1.3552858 66.428574
-8.7577143 5.9608579 -1.3550001 67.428574
-8.6544447 5.9477777 -1.3545556 68.666664
-8.5548754 5.9499998 -1.3548748 69.625
-8.4481106 5.9456663 -1.355111 70
-8.3506241 5.9411249 -1.356125 70
-8.2565556 5.9376664 -1.3567778 68.111115
-8.1553335 5.9368339 -1.3559999 66.666672
-8.0427999 5.9552002 -1.3554 67.200005
-7.9522495 5.9641252 -1.35475 68
-7.851625 5.9506249 -1.3538749 67.875
-7.7504997 5.9432001 -1.3535999 69.599998
-7.649889 5.936111 -1.3538889 70.777779
-7.5585723 5.9332862 -1.354 70.428574
-7.4548335 5.9558334 -1.354 70.166672
-7.3512225 5.9585552 -1.3525556 69.333336
-7.2516251 5.9393749 -1.35075 67.75
-7.151 5.9330916 -1.3494546 68.727272
-7.0482001 5.9643998 -1.3491 69.099998
-6.9533334 5.9483328 -1.3486667 69.777779
-6.8597002 5.9426003 -1.349 70.800003
-6.7487698 5.936615 -1.3493847 70.538467
-6.6553569 5.9457145 -1.3501431 71.571434
-6.5565996 5.9523335 -1.3505334 74.133339
-6.4509997 5.9531999 -1.3517001 74.400002
-6.347167 5.9393339 -1.3520834 72.166672
-6.2492504 5.9516253 -1.3513749 75.3125
-6.1538463 5.9486923 -1.3516155 76.538467
-6.0511665 5.948 -1.3516668 77.083336
-5.9525008 5.9538889 -1.3512777 77.444443
-5.8504171 5.9495006 -1.3509166 76.833336
-5.7470622 5.95825 -1.3507501 77.9375
-5.6499996 5.9430003 -1.3506843 77.736839
-5.5496669 5.9484172 -1.3510833 77.333336
-5.4514995 5.9505 -1.3512222 78.666664
-5.3568749 5.9471254 -1.3511873 77.75
-5.2470002 5.9517059 -1.3514706 80.529411
-5.1520524 5.9478951 -1.3521051 81.368423
-5.0463529 5.9519415 -1.3529413 81.411766
-4.9488497 5.94625 -1.3530501 79.650002
-4.8475556 5.951056 -1.3530002 80
-4.7505231 5.9464293 -1.3534287 80.428574
-4.6492 5.9565501 -1.3530501 81.349998
-4.5514998 5.9500999 -1.35285 81.800003
-4.4500909 5.9517741 -1.3532275 82.727272
-4.3509994 5.9506674 -1.3530478 81.666672
-4.2528639 5.9468193 -1.3530003 82.5
-4.1497388 5.9466519 -1.3530003 84
-4.0487204 5.9542398 -1.3532802 83.519997
-3.9503806 5.9476666 -1.354 81.809525
-3.8535419 5.9452085 -1.3538334 80.791672
-3.754174 5.9490433 -1.3543478 80.08696
-3.6526248 5.9495425 -1.3549581 76.208336
-3.5516403 5.9492402 -1.3555195 75.919998
-3.4503746 5.9490833 -1.3559579 78.125
-3.3510716 5.9477139 -1.3559638 79.285721
-3.2509625 5.9470005 -1.3555923 79
-3.1508148 5.9498148 -1.3546295 80.370369
-3.0514288 5.9483938 -1.3540359 81.821434
-2.9504073 5.9526296 -1.3537408 81.259262
-2.8503108 5.9473791 -1.3534484 80.344826
-2.7509656 5.9476204 -1.3538276 80.034485
-2.6503224 5.9488711 -1.3540646 81.903221
-2.5516872 5.9490633 -1.3549372 81.59375
-2.4512904 5.9491925 -1.3550965 81.516129
-2.3501818 5.9479094 -1.3559086 81.454544
-2.2493336 5.9500914 -1.3563026 80.121216
-2.1478825 5.9489713 -1.3565879 78.735298
-2.0501213 5.9519696 -1.3569392 78.030304
-1.9491472 5.9503827 -1.3566467 79.470589
-1.8495151 5.949183 -1.3565451 77.636368
-1.7497141 5.9506283 -1.3560565 77.599998
-1.6508667 5.9502006 -1.3563665 77.900002
-1.554147 5.9499998 -1.3571471 77.970589
-1.4508858 5.9478006 -1.358286 78.257141
-1.3487029 5.9492431 -1.3590002 77.297302
-1.2493242 5.9479733 -1.3590002 78
-1.1520277 5.9502501 -1.3590002 76.777779
-1.0520263 5.9481053 -1.3590003 76.394737
-0.94969237 5.9488468 -1.3593594 75.128204
-0.85032427 5.9504323 -1.3595679 74.054054
-0.74994749 5.9482641 -1.3595266 74.236839
-0.64997149 5.9482579 -1.3596288 76.114288
-0.55064851 5.9491634 -1.3595408 75.189194
-0.45041031 5.9515133 -1.3588208 76.307693
-0.34995121 5.9495597 -1.3584883 76.853653
-0.2506842 5.951263 -1.3578424 76.973686
-0.15239473 5.9522896 -1.3572366 77.078949
-0.05113158 5.9489741 -1.3571314 78.026314
0.041571427 5.9486122 -1.3570404 77.653061
0.14875677 5.9507031 -1.3572704 77.37838
0.24923684 5.9498415 -1.3577371 77.078949
0.34947374 5.9498949 -1.357711 76.526314
0.44876331 5.9494739 -1.3573684 75.052635
0.55024326 5.9481626 -1.3575405 74.081085
0.65002859 5.9522853 -1.3573713 74.371429
0.7515136 5.9474058 -1.357216 75.37838
0.8491081 5.9498916 -1.35727 75.567566
0.95024997 5.9497237 -1.357083 77.583336
1.0498918 5.9506483 -1.3570267 78.432434
1.1493516 5.9484057 -1.3569996 78.243248
1.2505789 5.9488416 -1.3567102 79.473686
1.352139 5.9505277 -1.3560271 79.638893
1.4511713 5.9488287 -1.3559422 77.742859
1.5479168 5.9482503 -1.3558327 77.027779
1.6485834 5.9481664 -1.3544999 74.916664
1.7476001 5.9451141 -1.3546284 73.828575
1.8470001 5.9486055 -1.3568482 71.424248
1.9480002 5.9482169 -1.358595 73.243248
2.0490911 5.9491215 -1.3595457 73.969696
2.1490605 5.9511218 -1.3600003 72.78788
2.247412 5.947382 -1.3596767 71.470589
2.3494332 5.9502668 -1.3588336 71
2.4463549 5.9486132 -1.3577744 71.387093
2.5474 5.9478331 -1.3562329 70.400002
2.6511719 5.9497242 -1.3550342 71.827583
2.7486899 5.9483104 -1.3542414 72.586205
2.8499169 5.9490833 -1.3539584 74
2.9502335 5.9463005 -1.3539001 80.366669
3.0489585 5.9482927 -1.3545415 82.583336
3.1475601 5.9478807 -1.3551595 83.639999
3.2465594 5.9526 -1.3559996 84.959999
3.3487086 5.9485416 -1.356375 87.125
3.449167 5.9490833 -1.3563331 85.166672
3.5487857 5.9459291 -1.3561066 87.178574
3.6511924 5.9514995 -1.3555766 87.269234
3.7487392 5.9500442 -1.3550867 76.217392
3.8478751 5.9560423 -1.3554167 80.916672
3.9450803 5.9493594 -1.3540001 87.559998
4.0485654 5.9474349 -1.3531307 89.04348
4.1290002 5.962728 -1.3525455 81.545456
5.7718005 5.9154005 -1.3534001 80.200005
5.8504281 5.9488578 -1.3531431 80.357147
5.953167 5.9530001 -1.3530834 80.166672
6.0501876 5.9446249 -1.3529376 79.4375
6.1455455 5.9398179 -1.3521818 77.272728
6.3659997 5.9151998 -1.3546001 81
6.4510007 5.9424615 -1.3539231 79.692314
6.54425 5.947 -1.3559999 75.25
6.6528339 5.9335003 -1.3566666 79.166672
6.7301817 5.9467268 -1.3566364 77.090912
6.9879999 5.915 -1.351 68
7.0644999 5.9441671 -1.3526666 74.333336
7.1429996 5.9657502 -1.3545001 75.5
7.381 5.9060001 -1.363 70
7.4463329 5.9546671 -1.3576669 79.166672
7.5165 5.9905 -1.3564999 86
7.6470003 5.9235001 -1.3505 73.5
-10.91209 6.069273 -1.3312727 140.45454
-10.8722 6.0335999 -1.3493999 115.3
-10.7365 6.0450001 -1.3659999 70
-10.644667 6.0373335 -1.3636668 67.666672
-10.53425 6.0495005 -1.36225 67.5
-10.441801 6.0514002 -1.3618001 67.400002
-10.346857 6.0591435 -1.3622857 67.285721
-10.246668 6.0524998 -1.3623333 63.833336
-10.151199 6.0376 -1.3604001 61.600002
-10.054143 6.041286 -1.3594286 62.428574
-9.9523335 6.0315008 -1.3601668 62.833336
-9.8540001 6.0652504 -1.3609999 63
-9.7509995 6.0487499 -1.3615 63
-9.6645002 6.0454998 -1.36175 61.75
-9.5469999 6.0429997 -1.35975 61.25
-9.4516678 6.0409999 -1.3593334 62.333336
-9.3501425 6.0594287 -1.3588573 62.857147
-9.251833 6.053833 -1.3585 64
-9.1601439 6.0515718 -1.358 63.857147
-9.0567503 6.0404997 -1.3570001 64.25
-8.9619999 6.0345001 -1.3565 64.5
-8.8509998 6.0492496 -1.3564999 65.75
-8.7557497 6.0487499 -1.3559999 66.5
-8.6449995 6.0581665 -1.3559999 67.666672
-8.5502491 6.0667496 -1.3559999 67.875
-8.4528894 6.0538888 -1.3564445 69.111115
-8.3483334 6.0516667 -1.3578888 69
-8.2481422 6.0495715 -1.3577143 68
-8.1508884 6.0343342 -1.3568889 67.555557
-8.0522861 6.0314283 -1.3558573 68.285721
-7.9487782 6.0707779 -1.3562223 68.333336
-7.8499999 6.059 -1.3547499 68.75
-7.7508893 6.0457778 -1.3546667 69.777779
-7.6465554 6.0403333 -1.3546666 70.333336
-7.5557775 6.0323334 -1.3553331 71.444443
-7.4565005 6.0475998 -1.3553001 71.099998
-7.3557782 6.056334 -1.3543334 68.777779
-7.2519999 6.0458894 -1.3525556 69
-7.1525002 6.0384998 -1.3515 68.25
-7.0508003 6.0615001 -1.3505001 67.300003
-6.9437776 6.0451112 -1.3493334 68.777779
-6.846818 6.0314546 -1.3494546 70.090912
-6.7474284 6.0497146 -1.3500003 71.857147
-6.6470003 6.0573997 -1.3500003 73.099998
-6.5523996 6.0468998 -1.3500003 74.800003
-6.4451337 6.0460668 -1.3504668 76.866669
-6.3494377 6.0471249 -1.3504376 77.6875
-6.2476001 6.0481 -1.3500003 78.700005
-6.1483579 6.0466428 -1.3504287 79.428574
-6.0536671 6.0484672 -1.3502668 80.333336
-5.9558468 6.0552306 -1.35 83.384621
-5.8492937 6.0527654 -1.3500589 80.352943
-5.7563081 6.0563083 -1.3500772 79.46154
-5.6484289 6.0445719 -1.3504287 80.14286
-5.5468335 6.0486665 -1.351 80
-5.447917 6.0492496 -1.3510833 80.583336
-5.3519998 6.0518827 -1.351 82.176468
-5.2565885 6.0465889 -1.3517058 82.235298
-5.1456251 6.0529375 -1.3521249 82.125
-5.0546112 6.0485001 -1.3529445 82.722221
-4.9454117 6.0515294 -1.3530589 81.294121
-4.8544116 6.0478234 -1.353 80.941177
-4.7503505 6.05375 -1.3529502 81.349998
-4.6454444 6.0530558 -1.3525556 82.5
-4.5527892 6.0485797 -1.3529476 83.473686
-4.4486318 6.0531578 -1.3532108 83.526314
-4.3519478 6.0532107 -1.3533685 82.684212
-4.2525496 6.0466499 -1.3537 82.950005
-4.1480002 6.0487366 -1.3533158 81.684212
-4.0471497 6.0545001 -1.3537501 81
-3.947773 6.0469999 -1.3539547 79.681824
-3.8496661 6.0471425 -1.3544284 78.761909
-3.7539172 6.0502505 -1.3548748 77.75
-3.6529999 6.0513206 -1.3552396 76.040001
-3.5500832 6.0476246 -1.355583 76.416672
-3.4501202 6.0471196 -1.3555595 78.279999
-3.3494003 6.0491199 -1.3551997 78.799995
-3.2512224 6.0481105 -1.3547406 78.259262
-3.1481204 6.0463195 -1.3539999 79.32
-3.0492961 6.0500741 -1.3533335 82.814812
-2.95169 6.0510683 -1.3531036 81.068962
-2.852345 6.0489998 -1.3531038 79.793106
-2.7506077 6.0454283 -1.3537145 80
-2.6494136 6.0505514 -1.3543448 80.448273
-2.5498574 6.0502868 -1.354964 81.035721
-2.4495804 6.0479674 -1.3548383 81.322578
-2.3509333 6.048501 -1.3552997 82.066673
-2.2517743 6.0489678 -1.3556446 78.870964
-2.1521561 6.0503125 -1.3559994 78.75
-2.05071 6.0465803 -1.3560963 78.129028
-1.9522902 6.0489359 -1.3560317 79.741936
-1.8515457 6.0490308 -1.3564843 77.696976
-1.7496562 6.0499687 -1.356781 77.375
-1.6501822 6.0474243 -1.3570606 78.454544
-1.551697 6.0488186 -1.3580611 77.484848
-1.450892 6.0492969 -1.3588921 78.135139
-1.3515153 6.0499697 -1.3590306 78.242424
-1.2517501 6.0501952 -1.3588614 78.222221
-1.1512285 6.0497718 -1.3590002 77.457146
-1.0525999 6.0496573 -1.3590859 76.85714
-0.95411432 6.0487714 -1.3595146 75.685715
-0.84960526 6.0503955 -1.359316 75.026314
-0.74900001 6.0497499 -1.3596112 75.5
-0.64918417 6.0462108 -1.3598424 77.868423
-0.5507223 6.0466676 -1.3595282 76.166664
-0.4521389 6.0521398 -1.3589724 75.361115
-0.35155556 6.0504174 -1.3582782 75.972221
-0.24954057 6.052 -1.3580006 76.891891
-0.14720589 6.0483818 -1.3580005 75.382355
-0.049888898 6.0479169 -1.3578058 75.916664
0.043936171 6.0482759 -1.3572124 76.319145
0.15044445 6.0507503 -1.3578614 77.805557
0.2485 6.0487776 -1.3580005 77.027779
0.34934285 6.048429 -1.3580005 76.028572
0.44916669 6.0491939 -1.3580005 75.194443
0.5495556 6.0482502 -1.3581116 73.861115
0.65119439 6.0499439 -1.3580005 74.722221
0.74902934 6.0486774 -1.3579711 75.294121
0.85075003 6.0505557 -1.3579727 76.027779
0.94917142 6.0487719 -1.3573142 76.028572
1.0475557 6.0512228 -1.3570553 77.75
1.1485833 6.0487242 -1.3569996 78.222221
1.2502002 6.0505428 -1.3564565 77.942856
1.3480303 6.0473628 -1.3559994 80.272728
1.4495715 6.0495992 -1.3559707 78.51429
1.5494061 6.0467505 -1.3552495 77.90625
1.6482434 6.0477028 -1.3540541 76.189194
1.7519065 6.0479369 -1.3544687 71.6875
1.8509091 6.0496364 -1.3564847 72.484848
1.9510305 6.0515161 -1.3577579 73.515152
2.0506663 6.0490909 -1.3583639 75.303032
2.1473031 6.0516057 -1.3588185 74.666672
2.2508483 6.0482721 -1.359182 73.121216
2.3516002 6.0466342 -1.3590001 71.700005
2.4480345 6.0491028 -1.3579313 72.551727
2.5488122 6.049437 -1.3566561 72
2.6506071 6.0499291 -1.3559282 72.678574
2.7478459 6.0468841 -1.3553075 73.384621
2.8490345 6.0472064 -1.3552065 73.448273
2.9490433 6.0481305 -1.3552606 75.391304
3.0529995 6.0456796 -1.3555597 80.839996
3.1508751 6.0507917 -1.3564167 84
3.2506363 6.0499096 -1.3572729 86.727272
3.3510003 6.0482965 -1.3575187 87.59259
3.4520471 6.0474281 -1.3572859 86.380951
3.5477829 6.0489564 -1.356522 84.04348
3.6536789 6.054894 -1.3549999 83.535721
3.7464552 6.0506821 -1.3542272 75.590912
3.846956 6.051652 -1.3546956 76.695656
3.950273 6.0459547 -1.3530912 80.318184
4.0482912 6.046792 -1.35225 84.916672
4.1470461 6.0542274 -1.3519545 83.909096
4.2179999 6.0709996 -1.3522501 74.25
5.8857498 6.0279999 -1.35375 79.5
5.9515834 6.0432501 -1.3537501 79.416672
6.0485001 6.0483336 -1.3527501 79.916672
6.1500001 6.0425625 -1.3529376 80.125
6.2399998 6.0484996 -1.353 80.5
6.3800001 6.0439997 -1.3555 67.5
6.4651999 6.0283999 -1.3586 74
6.5517273 6.043364 -1.3541819 77
6.6263342 6.0676665 -1.353 75.666672
6.7438569 6.0340009 -1.350143 76.14286
6.8120003 6.0662503 -1.3535 76.25
6.9559999 6.086 -1.349 58
7.1289997 6.0500002 -1.3576667 72.666672
7.2165003 6.0539999 -1.3575 62
7.5559998 6.0296669 -1.3536667 85.333336
7.6135001 6.0679998 -1.3494999 90.5
-10.937843 6.1513157 -1.3355263 139.21053
-10.8655 6.1177502 -1.3655 86.75
-10.754168 6.1533332 -1.3660001 68
-10.641167 6.1420002 -1.3640001 67
-10.556001 6.1219997 -1.3633335 66
-10.4492 6.1540003 -1.3623999 65.599998
-10.3595 6.1630001 -1.3635 62.5
-10.264 6.1500006 -1.3616667 61.333336
-10.161799 6.1617999 -1.3608 61
-10.0502 6.1426005 -1.3612 62
-9.9524002 6.1589999 -1.3614 62.400002
-9.8507147 6.1575718 -1.3621429 62.285717
-9.7511673 6.1555004 -1.3626666 61.833336
-9.6525726 6.1525712 -1.3618571 61.14286
-9.5500002 6.1381431 -1.3608572 62.000004
-9.4521666 6.1340003 -1.3606666 62.5
-9.3477497 6.1500001 -1.36 63.5
-9.24825 6.151 -1.36 63.75
-9.1463337 6.1419997 -1.3593334 63.333336
-9.0592861 6.166429 -1.3597143 63.857147
-8.9536247 6.1523752 -1.3585001 64.875
-8.8521252 6.1482501 -1.3586249 66
-8.7487144 6.1335711 -1.358 67
-8.6596003 6.1461997 -1.3578 67
-8.55725 6.1529999 -1.358 67.75
-8.4532003 6.1544003 -1.3584 68.599998
-8.354167 6.1461668 -1.3590001 68.666672
-8.2514286 6.1644292 -1.3592858 67.857147
-8.1478748 6.1430001 -1.357375 68
-8.0483751 6.1316247 -1.3570001 69
-7.9489999 6.1512504 -1.3567499 68.75
-7.8498883 6.1688886 -1.3571111 70.111115
-7.7497778 6.1552224 -1.3571111 70.222221
-7.6526251 6.1477504 -1.356625 71.5
-7.5560002 6.1331253 -1.3559999 72.125
-7.4578891 6.1492224 -1.3557777 71.222221
-7.3486667 6.158 -1.3544445 70.777779
-7.2457776 6.1358886 -1.3532223 70.111115
-7.1558752 6.1405005 -1.3525001 68
-7.0540004 6.1573997 -1.3518 67.300003
-6.9508004 6.1449003 -1.3508 68.599998
-6.8426676 6.140583 -1.3506668 70.5
-6.7438889 6.1620002 -1.3510001 71.555557
-6.6489005 6.1513 -1.3507999 74.400002
-6.5477996 6.1346998 -1.3507 76.700005
-6.4540005 6.1536369 -1.3503637 78.454544
-6.350091 6.1536369 -1.3505455 79.818184
-6.2475004 6.1414165 -1.3502501 80.583336
-6.1551433 6.1520009 -1.3501431 80.428574
-6.0511112 6.1486669 -1.3483332 82.111115
-5.9516311 6.1478419 -1.3487366 84.315788
-5.848455 6.153636 -1.3492727 83.454552
-5.7498665 6.1556668 -1.3499336 84.066673
-5.6515551 6.1457777 -1.3503891 83.722221
-5.5493336 6.1463332 -1.3509167 83.916672
-5.4501052 6.1476841 -1.3504738 86.052635
-5.3484621 6.1506162 -1.3507693 85.538467
-5.2465301 6.1471763 -1.3517058 85.058823
-5.1558671 6.1489334 -1.3520668 84.666672
-5.0520558 6.1510553 -1.3526667 84.888893
-4.9583745 6.1476254 -1.3530626 84.5625
-4.8519998 6.1495562 -1.3529445 83.333336
-4.7482944 6.1543531 -1.3524117 82.647057
-4.6511669 6.1443887 -1.3521109 83
-4.5455794 6.1517892 -1.3527371 84.105263
-4.4495001 6.1481109 -1.3531113 82.833336
-4.3527894 6.1447363 -1.3532634 83.315788
-4.2470956 6.1510954 -1.3539525 83.714287
-4.1455002 6.1470003 -1.3539001 79.300003
-4.0488505 6.1500497 -1.3542501 78.650002
-3.9509094 6.1463647 -1.3544091 76.818184
-3.8538501 6.1501002 -1.3550497 75.900002
-3.7494545 6.1475921 -1.3551362 74.909096
-3.648905 6.1511426 -1.3555235 75.571426
-3.5510836 6.1480837 -1.3557495 76.833336
-3.4514799 6.1493211 -1.3551997 78.080002
-3.3511255 6.1483335 -1.3545415 77.875
-3.248522 6.1476097 -1.3541305 79.08696
-3.1503706 6.1468892 -1.3534446 79.59259
-3.0501199 6.1506796 -1.35244 80.68
-2.9515004 6.1472306 -1.3524231 79.653847
-2.8478515 6.1527414 -1.3534446 80.222221
-2.7474484 6.1486554 -1.354 80.758621
-2.6485925 6.1498141 -1.3544443 80.555557
-2.5491035 6.1484828 -1.3545516 80.862068
-2.4489999 6.1506786 -1.3543214 80.928574
-2.3520966 6.1476126 -1.3546772 81.451607
-2.2470002 6.1483021 -1.3554661 79.133339
-2.1501071 6.1504645 -1.3561069 78.785721
-2.0497575 6.1484542 -1.3559691 79.181824
-1.9482583 6.1450968 -1.3557737 78.483871
-1.851125 6.1499062 -1.3561245 78
-1.7504375 6.150219 -1.356656 77.4375
-1.6504706 6.1480875 -1.3570881 77.647057
-1.5485455 6.1483631 -1.3579701 78.030304
-1.4517096 6.1509671 -1.3588065 78.548386
-1.3511716 6.1471715 -1.3585432 78
-1.2491615 6.1507745 -1.3591615 77.032257
-1.1518124 6.1495938 -1.3596565 78.46875
-1.0496563 6.148375 -1.3594064 76.8125
-0.95111424 6.1476283 -1.3592001 75.971428
-0.85103035 6.1503949 -1.3591821 75.484848
-0.75211418 6.1475997 -1.359143 76.85714
-0.65168417 6.1488423 -1.3590003 76.842102
-0.54875678 6.1472163 -1.3589193 76.729729
-0.44954282 6.1490002 -1.358686 76.571426
-0.34939998 6.1493144 -1.3584861 75.342857
-0.2489706 6.1525884 -1.3586179 74.558823
-0.15113887 6.1460562 -1.3583059 75.472221
-0.049891897 6.1509461 -1.3580006 75
0.043956518 6.1489563 -1.3574567 75.08696
0.14990908 6.1484847 -1.3579096 76.484848
0.24772222 6.1509991 -1.3580838 76.666664
0.34883782 6.1492958 -1.3582168 76.108109
0.4505589 6.1494417 -1.3581768 74.676468
0.54917663 6.1494999 -1.3588825 74.764709
0.65014702 6.1482358 -1.3586179 73.588234
0.75091183 6.1482353 -1.3582356 74.647057
0.84993929 6.1481819 -1.3580308 77.090912
0.9490304 6.1501212 -1.357879 76.303032
1.0485454 6.1510301 -1.3572725 77.090912
1.1506971 6.1476965 -1.35703 77.515152
1.2501613 6.1482906 -1.3569676 77.483871
1.3493439 6.1495943 -1.356406 78.1875
1.4493531 6.1473246 -1.3559699 79.617645
1.5492059 6.1492357 -1.3550292 79.588234
1.6485 6.1471868 -1.3536564 74.65625
1.7479997 6.1491923 -1.3546127 71.967743
1.8493224 6.1486125 -1.3554513 72.387093
1.9481875 6.1489372 -1.3562496 73.625
2.0489142 6.1497426 -1.3561711 73.914284
2.1512256 6.1501932 -1.356871 74.129028
2.2476974 6.1508484 -1.357394 74.515152
2.3487141 6.1499434 -1.3576573 75.028572
2.4482188 6.1494999 -1.3569685 74.28125
2.5497143 6.1512508 -1.3569285 73.321434
2.6485715 6.152 -1.3563572 72.75
2.7514644 6.1471429 -1.3560351 73.964287
2.8506398 6.1515198 -1.3561195 73.479996
2.954077 6.1469622 -1.3566538 75.115387
3.0513077 6.1492305 -1.3568846 78.884621
3.1518638 6.1490459 -1.3573637 83.818184
3.2489195 6.1482005 -1.35812 87.080002
3.3502176 6.150826 -1.3583041 89.695656
3.4517498 6.1465845 -1.3582915 87.666672
3.5523748 6.1480417 -1.3572086 84.791672
3.6453042 6.1571741 -1.3543479 76.434784
3.75368 6.1473999 -1.3534398 66.519997
3.8486116 6.1504445 -1.3545001 69.722221
3.9488339 6.1460414 -1.3531251 74.791672
4.0504117 6.1434712 -1.3520586 78.882355
4.144381 6.1509047 -1.3514285 82.809525
4.2436666 6.1539445 -1.3512222 81.777779
5.9717498 6.1160002 -1.3542501 78.25
6.0483336 6.1402502 -1.3540834 78.583336
6.1519165 6.1516676 -1.3534167 78.25
6.2581334 6.1488671 -1.3534669 79.733337
6.3403754 6.1402502 -1.352875 79.375
6.4309998 6.1100001 -1.3636668 69
6.5784998 6.1075001 -1.355 78
6.6534004 6.1461997 -1.3559998 76.200005
6.7330008 6.1803336 -1.3556666 77
6.8506007 6.1472006 -1.3558 70
6.9239998 6.197 -1.354 64
7.0770001 6.1919999 -1.36 69
7.1960001 6.1069999 -1.358 63
7.2610006 6.1510005 -1.3596666 67.666672
-10.971088 6.247261 -1.3368261 144.04349
-10.8592 6.2424002 -1.3686 73.599998
-10.757999 6.2544999 -1.3665 68
-10.657333 6.2406669 -1.3653333 65.666672
-10.548667 6.2310004 -1.3640001 65.333336
-10.45125 6.2352495 -1.3647499 64.25
-10.343001 6.2610002 -1.364 60.600002
-10.257 6.2424998 -1.3625001 60.25
-10.154667 6.2476668 -1.3611667 61.166668
-10.054 6.243 -1.362 62.200001
-9.9621992 6.2380004 -1.3628 62.200001
-9.8514996 6.2532501 -1.363 61.75
-9.7583342 6.2546668 -1.3629999 61
-9.6660004 6.2470007 -1.3626666 62
-9.5511436 6.2580004 -1.3620001 62.14286
-9.4533329 6.2650003 -1.3609999 62.666668
-9.3546247 6.2392497 -1.3605 63.625
-9.2565002 6.241333 -1.3606666 64.166672
-9.160429 6.2352858 -1.3607143 64.571434
-9.0542498 6.2547498 -1.36 65
-8.9394007 6.2638001 -1.3594 67
-8.8501253 6.2627501 -1.359875 67.875
-8.7531433 6.2521429 -1.3598572 67.428574
-8.6539993 6.2473755 -1.359125 67.75
-8.5477495 6.2362499 -1.3590001 68.375
-8.4487143 6.2431436 -1.3597143 69.285721
-8.3531437 6.2242861 -1.3602859 69.14286
-8.2630005 6.2705717 -1.3594286 67.14286
-8.1536999 6.2524004 -1.3583 68.200005
-8.0537148 6.2404284 -1.358143 69.857147
-7.9531116 6.2336664 -1.3578888 70.555557
-7.8431664 6.2658329 -1.358 71.5
-7.7547503 6.2622499 -1.3576249 71.5
-7.6515565 6.2497778 -1.3574445 71.333336
-7.5522223 6.2338891 -1.3565556 71.222221
-7.4491 6.2556 -1.3559999 71.599998
-7.3481116 6.2538896 -1.3555554 70.555557
-7.2557497 6.2457495 -1.355 69.5
-7.1532221 6.2397776 -1.353889 68.555557
-7.048667 6.2622223 -1.3526667 69.444443
-6.9483328 6.2374444 -1.3517778 70.333336
-6.8512001 6.2479997 -1.3522002 73.099998
-6.7585006 6.2530003 -1.3520001 75.5
-6.6512723 6.2453642 -1.3516365 77.636368
-6.5489173 6.2421675 -1.3515 79.916672
-6.4552498 6.2542496 -1.3511666 81.75
-6.3487272 6.2486367 -1.3508183 82.545456
-6.2546153 6.2480001 -1.3508462 82.538467
-6.152 6.2546673 -1.35075 81.583336
-6.0433846 6.2523079 -1.3496925 82.692314
-5.9495997 6.2578001 -1.3494 84.5
-5.8479233 6.2450771 -1.3490769 85.692314
-5.7517147 6.2534289 -1.3496431 86.428574
-5.6494546 6.2471824 -1.3500003 86.36364
-5.5519409 6.2460594 -1.350059 86.882355
-5.4492493 6.2520838 -1.3498335 87.833336
-5.3526502 6.2476997 -1.3502501 88.400002
-5.2544284 6.2426429 -1.3512857 87.857147
-5.1503339 6.2510009 -1.3519999 86.222221
-5.0517144 6.2504287 -1.3520714 85.785721
-4.9507999 6.2458501 -1.35225 86.050003
-4.8475332 6.2527342 -1.3525999 85.333336
-4.7573748 6.2432499 -1.3520623 83.9375
-4.6526999 6.2482004 -1.3514498 82.200005
-4.5493884 6.2494454 -1.3528335 83.611115
-4.456471 6.245059 -1.3534119 83
-4.3502383 6.2499523 -1.3539524 83.571426
-4.247715 6.2482862 -1.3539048 82.238098
-4.1499009 6.2507505 -1.35395 79.349998
-4.0528088 6.247714 -1.3547617 77.571426
-3.9497497 6.2515502 -1.3555998 76.349998
-3.8501503 6.2516494 -1.3560495 74.25
-3.7522275 6.252409 -1.3560905 74.318184
-3.648458 6.2504578 -1.3559163 76
-3.548857 6.2494764 -1.3555235 77.14286
-3.4479549 6.2500911 -1.3550906 78.272728
-3.349565 6.2479568 -1.3542609 78
-3.2500741 6.2493343 -1.3536297 80.777779
-3.15025 6.249958 -1.3527918 80.708336
-3.0505996 6.2513199 -1.3522398 78.68
-2.9502687 6.2487688 -1.3524231 80
-2.8519616 6.249846 -1.3530772 82.615387
-2.7498465 6.2505002 -1.354 81.038467
-2.6517785 6.2502961 -1.3545183 81
-2.5510387 6.2502298 -1.3546152 80.692314
-2.4525356 6.2530713 -1.3543572 78.89286
-2.3501482 6.2472596 -1.3546295 78.814812
-2.2525864 6.2477589 -1.355103 78.965515
-2.1514332 6.2476006 -1.3555995 80.600006
-2.052815 6.2484441 -1.3557774 79.222221
-1.9523225 6.2484832 -1.3558381 77.903221
-1.8535515 6.2484131 -1.3557926 77.655174
-1.7555667 6.2499671 -1.3559661 77.833336
-1.6492646 6.2486773 -1.3568527 77.147057
-1.5458388 6.2479677 -1.3577421 76.161285
-1.4479375 6.2502818 -1.358469 77.9375
-1.3510644 6.2491293 -1.358742 76.516129
-1.2532812 6.2467499 -1.3590313 78.875
-1.1506855 6.2485147 -1.3591431 82.14286
-1.0525312 6.2491565 -1.3600627 78.125
-0.949 6.2495456 -1.3599397 75.030304
-0.84965622 6.2490311 -1.3596877 75.59375
-0.75028121 6.2477183 -1.3590626 75.21875
-0.65183872 6.2484846 -1.3589678 75.387093
-0.55133337 6.2490606 -1.3587275 75.333336
-0.45003125 6.2471247 -1.3589376 76
-0.34990907 6.253334 -1.3591213 75.303032
-0.25184375 6.2514372 -1.3590626 74.71875
-0.15220588 6.2482648 -1.3587061 74.382355
-0.048781253 6.2514696 -1.3582815 74.40625
0.039575007 6.2491493 -1.3581256 74.224998
0.1487353 6.2490001 -1.3581181 74.911766
0.25115624 6.2487502 -1.3580629 76
0.34951514 6.250515 -1.3581519 76.242424
0.44981819 6.2486358 -1.358879 74.696976
0.55124247 6.2495165 -1.3590912 75.36364
0.64954537 6.2499399 -1.3591214 73.15152
0.74835479 6.2475805 -1.3589355 73.354836
0.84820586 6.2498527 -1.3584121 76.617645
0.94900006 6.2470632 -1.3579066 76.15625
1.049871 6.2490969 -1.3577099 76.258064
1.1493334 6.2512417 -1.3576974 77.15152
1.2513436 6.248312 -1.357156 76.59375
1.35225 6.2467504 -1.3565621 77.125
1.451645 6.248064 -1.3558705 77.838707
1.5491291 6.2498708 -1.3540968 78.80645
1.6467334 6.248167 -1.3536669 74.000008
1.7491002 6.2491679 -1.3545001 72.233337
1.8481334 6.2475672 -1.3549664 72.933334
1.9474838 6.2467422 -1.3549674 73.161285
2.0492072 6.2507238 -1.3549997 71.586205
2.1487238 6.2475166 -1.355172 72.344826
2.247334 6.2511334 -1.3551998 71.966667
2.3479335 6.2514677 -1.3551664 73.933334
2.4497499 6.2494292 -1.3556068 74.5
2.5485926 6.2479987 -1.3557404 74.925926
2.646893 6.2513218 -1.355821 73.714287
2.7497692 6.2492304 -1.3560381 73.653847
2.8503337 6.249917 -1.3567917 74.041672
2.9469998 6.2512803 -1.3570802 74.599998
3.0482609 6.2481737 -1.3573046 76.782608
3.1494403 6.2481198 -1.35812 81.439995
3.2493334 6.2521911 -1.3586665 86
3.346478 6.2491312 -1.3589128 88.08696
3.4498265 6.2472172 -1.358565 90.478264
3.5518186 6.244545 -1.3573637 85.772728
3.641773 6.2522273 -1.3539091 73
3.7500522 6.2545257 -1.3557366 60.789474
3.848526 6.2528939 -1.355684 65.105263
3.948 6.2525005 -1.3538847 77.884621
4.0508575 6.244143 -1.352 75.190475
4.1498256 6.2468696 -1.3506088 79.260872
4.2515793 6.2502637 -1.3506316 80.052635
4.3381672 6.2617502 -1.3505834 75
6.0638003 6.2149997 -1.3548001 77.800003
6.1505003 6.2436666 -1.3545833 79.25
6.2494001 6.2571001 -1.354 77.599998
6.3454289 6.2493572 -1.3543572 78.357147
6.4378753 6.2503748 -1.3544999 78.375
6.6880002 6.217 -1.3559999 78
6.7571249 6.2460003 -1.3561249 78
6.8481669 6.2523336 -1.3566666 75
6.9546671 6.2460003 -1.3580002 78.333336
7.1452003 6.2542005 -1.3568 71.400002
7.3518 6.2326007 -1.3588001 74.400002
7.4402003 6.2722001 -1.3598001 78.200005
-11.016376 6.3538752 -1.3333749 154.125
-10.9628 6.3278003 -1.3652 97.200005
-10.8505 6.3629999 -1.36775 69.25
-10.755168 6.3528328 -1.3665001 67.5
-10.653666 6.3473334 -1.3658335 66.333336
-10.553667 6.342 -1.3656667 65.166672
-10.4628 6.3297997 -1.3660001 62.600002
-10.34925 6.3522501 -1.3640001 59.25
-10.245 6.3415003 -1.362 60
-10.148573 6.3617144 -1.3621429 61.428574
-10.038714 6.3630004 -1.3624288 61.857147
-9.9387159 6.3525715 -1.3632858 61.857147
-9.8425007 6.3521667 -1.3631667 61.166668
-9.7490005 6.3438334 -1.3630002 62
-9.6481438 6.3391428 -1.3632858 62.000004
-9.5510006 6.3613334 -1.3623333 62
-9.4570007 6.3503337 -1.362 63
-9.3528004 6.3625998 -1.3618001 63.600002
-9.2535 6.3581247 -1.3609999 64.25
-9.1508579 6.3471432 -1.3605715 64.285721
-9.0545006 6.3393335 -1.3601668 64.833336
-8.9561434 6.3415713 -1.3598572 66.714287
-8.8483334 6.3540001 -1.3603333 67.333336
-8.7458572 6.3638577 -1.36 67.714287
-8.6459999 6.3579998 -1.3596249 68.125
-8.5453749 6.3504996 -1.3599999 68.25
-8.4473753 6.34375 -1.3605 69.125
-8.3528576 6.3387141 -1.3611429 68.285721
-8.2497501 6.3505001 -1.36025 67.5
-8.1414289 6.3578577 -1.3592858 68.571434
-8.0502853 6.3520002 -1.3588573 69
-7.9565549 6.3356667 -1.3582221 69.444443
-7.8516254 6.3505001 -1.3581249 69.375
-7.7466669 6.3617773 -1.358111 69.444443
-7.6443748 6.3495002 -1.3568751 69.125
-7.5464997 6.3328748 -1.3559999 70.875
-7.4474444 6.3585553 -1.3563334 71.777779
-7.3487501 6.3579998 -1.3561249 71.125
-7.2491107 6.3430004 -1.355111 70.777779
-7.1524448 6.3344445 -1.3542223 70.222221
-7.053875 6.3556252 -1.3535 71.125
-6.9581003 6.3408003 -1.3528 73.900002
-6.8531823 6.348455 -1.3526363 76.636368
-6.7492995 6.3552999 -1.3527001 78.900002
-6.6463637 6.345727 -1.3520002 80.818184
-6.5495005 6.3564167 -1.3519168 82.083336
-6.4477997 6.3526998 -1.3517001 81.599998
-6.3459091 6.3467278 -1.3516365 83
-6.2549095 6.3578181 -1.3517274 83.727272
-6.1526999 6.3422999 -1.351 83.900002
-6.0530829 6.3545837 -1.3509167 84.833336
-5.9505 6.3459997 -1.3503002 84.900002
-5.8489289 6.3477149 -1.3499287 86.571434
-5.7475834 6.34975 -1.3504167 86.666672
-5.6443572 6.3439283 -1.3507857 86.14286
-5.5523634 6.3498182 -1.3501819 86.090912
-5.4523129 6.34975 -1.3496876 88.375
-5.3451433 6.349072 -1.3498572 90.14286
-5.2494211 6.3516316 -1.3504211 88.578949
-5.1500001 6.343143 -1.3514285 86.785721
-5.0516877 6.3478746 -1.3514374 85.0625
-4.9473124 6.3496246 -1.3518749 87.125
-4.855 6.347765 -1.3522941 86.529411
-4.7480555 6.3457222 -1.3512776 80.722221
-4.6424732 6.3546319 -1.3513156 82.157898
-4.5525556 6.3428888 -1.3525558 83.833336
-4.4502501 6.3508501 -1.3535502 84.25
-4.3497224 6.350389 -1.3539444 83.5
-4.2532935 6.3501768 -1.3535295 80.058823
-4.154211 6.3486323 -1.3534213 78.842102
-4.0482273 6.349318 -1.3549998 77.954544
-3.9482355 6.3528237 -1.3564118 76.235298
-3.8482859 6.3475718 -1.3560948 75.238098
-3.7466505 6.3524508 -1.3559996 74.700005
-3.6508946 6.3503675 -1.3562102 77.526314
-3.5496192 6.3505716 -1.3559046 78.047623
-3.4502728 6.348227 -1.3548635 78
-3.3492274 6.3466825 -1.3535001 76.681824
-3.2501364 6.3529549 -1.3531821 77.5
-3.1516361 6.348455 -1.3523179 77.36364
-3.0513332 6.3511667 -1.3521664 77.458336
-2.9512608 6.3487396 -1.3524349 78.434784
-2.8491666 6.3460841 -1.3530835 81.333336
-2.7529602 6.3510008 -1.35392 79.919998
-2.6499233 6.3500772 -1.3542308 80.807693
-2.5501199 6.3473196 -1.3548797 79.68
-2.4512 6.3534799 -1.3544799 78.439995
-2.3500001 6.3451848 -1.3548146 78.629631
-2.2522593 6.3502221 -1.3552589 78.481483
-2.15063 6.3465185 -1.3551108 79.148148
-2.0508709 6.3498387 -1.3550963 78.032257
-1.9480342 6.3503103 -1.3550686 77.965515
-1.8484827 6.3461385 -1.3554479 77.758621
-1.7475805 6.3484511 -1.3558381 77.322578
-1.6474669 6.3486991 -1.3563664 76.966667
-1.5479332 6.348433 -1.3578004 75.933334
-1.4479312 6.3478961 -1.3580347 77.241379
-1.3488387 6.3487096 -1.3583549 76.838707
-1.2478709 6.3486123 -1.359 78.129028
-1.1490668 6.351367 -1.3592668 81.466667
-1.0502121 6.348938 -1.3596669 82.21212
-0.95310014 6.3519001 -1.3601336 78.26667
-0.85000008 6.3499699 -1.3600003 77.424248
-0.74973333 6.350235 -1.3600003 75.700005
-0.64912498 6.3492193 -1.3599066 76.1875
-0.55010009 6.3504004 -1.3598337 75.066673
-0.45225808 6.3488064 -1.3598067 75.870964
-0.35265514 6.3505168 -1.3599658 75.793106
-0.25090909 6.3501525 -1.3590305 75.969696
-0.15103337 6.3498673 -1.3590001 75.03334
-0.052939408 6.3488784 -1.3589699 74.969696
0.043232564 6.3487678 -1.3582332 74.837212
0.15017143 6.3495145 -1.3580005 75.028572
0.24884376 6.3452182 -1.3579692 75.1875
0.34949994 6.3488131 -1.358094 75.625
0.4502424 6.3482132 -1.3587275 75.121216
0.54970962 6.3493867 -1.3590969 75.290321
0.6505 6.3504686 -1.3598441 74.3125
0.75036675 6.3471665 -1.3593668 72.933334
0.84936678 6.350534 -1.3588668 73.966667
0.94964522 6.3488059 -1.3587098 76.290321
1.0515485 6.3512588 -1.3586775 75.709679
1.1535861 6.350966 -1.358207 77.517242
1.2498276 6.3472757 -1.3578622 76.241379
1.3506669 6.3501668 -1.3573667 76.000008
1.451067 6.3478327 -1.3555996 76.566673
1.5476071 6.3504648 -1.3547142 76
1.6478573 6.3487501 -1.3543214 72.357147
1.7487409 6.3503332 -1.355407 72.814812
1.8507857 6.3461437 -1.3549998 73.535721
1.9506552 6.3493452 -1.3545861 73.137932
2.0476208 6.3497252 -1.3542069 72.551727
2.1493227 6.3479352 -1.353742 72.225807
2.2490003 6.3482871 -1.3532145 71.964287
