# .PCD v0.7 - Point Cloud Data file format
VERSION 0.7
FIELDS x y z intensity
SIZE 4 4 4 4
TYPE F F F F
COUNT 1 1 1 1
WIDTH 1283
HEIGHT 1
VIEWPOINT 0 0 0 1 0 0 0
POINTS 1283
DATA ascii
17.363407 4.8462267 0.95127273 240.77274
23.368999 4.8465004 0.90999997 219
23.400999 4.823 0.93300003 175
-0.20100001 4.9250002 0.903 68
-0.197 4.9660001 0.90200001 67
2.54368 4.9520001 0.99040002 56.959999
5.3263388 4.9482222 0.95032471 180.68831
7.8299999 4.9169998 0.995 81
8.4919996 4.9499168 0.98800004 102.75
8.5147152 4.9494286 0.96571434 76.285721
17.374887 4.958611 0.94899994 241.5
23.376999 4.9400001 0.90600008 224.33334
23.421 4.98 0.93300003 182
2.5488849 5.0462303 0.98984629 57.346157
5.3377218 5.0462389 0.94869357 179.06667
7.8385 5.026 0.99650002 85.5
8.4965 5.0280004 0.99199998 106.75
8.5176535 5.0552182 0.97304356 82.260872
11.399 5.099 0.99699998 130
11.4 5.099 0.98100001 130
17.385117 5.0583529 0.94823521 241.88235
23.397999 5.0675001 0.91550004 210.5
23.400999 5.0679998 0.91799998 204
2.55705 5.1527495 0.9903 56.75
5.3491511 5.1488061 0.9499315 177.47945
7.8684998 5.1719999 0.99650002 80
8.5214071 5.1495919 0.97644448 82.296295
11.405056 5.1473055 0.94802785 205.88889
17.393623 5.1297503 0.95412499 221.5
17.422249 5.1739998 0.94700003 118
23.396999 5.1290002 0.90499997 227
23.42 5.1960001 0.921 199
2.5636818 5.2509093 0.98849982 56.318184
5.3603525 5.2502089 0.94950658 177.74026
7.8829999 5.21 0.995 76
8.5225563 5.2111111 0.97600007 73.444443
11.415617 5.2483234 0.95179415 222.73529
23.41367 5.2563338 0.90866673 219
2.570889 5.3464441 0.98911107 57.166668
5.3713179 5.3475485 0.95028341 173.43335
11.426645 5.3494992 0.94594115 223.08824
23.439001 5.3550005 0.92133331 202
2.579706 5.4444704 0.98917645 57.764706
5.3832426 5.4477849 0.94798565 170.42857
7.9120002 5.4679999 0.99699998 70
11.436999 5.4467101 0.95041931 226.12903
23.44125 5.4560003 0.91225004 219.25
2.5887501 5.5508127 0.98943746 55.9375
5.3946533 5.5421724 0.95023078 171.40385
5.400001 5.5900002 0.95290005 171.8
7.9200001 5.585 0.99599999 67
11.447515 5.5500541 0.94910806 223.51352
23.454666 5.5449996 0.92000002 210.66667
2.5929229 5.6475387 0.99246156 55.615387
2.6023335 5.6733336 0.98033333 55
5.4062662 5.6458182 0.95156676 173.36667
7.9445 5.6240001 0.99699998 64.5
11.459031 5.6539669 0.94812906 222.87096
23.449499 5.65275 0.91149998 193.25
2.589143 5.7651429 0.99442869 67.428574
2.6069 5.7618999 0.98939991 55.200001
5.4164915 5.7433596 0.94888526 172.52458
11.468966 5.749228 0.94832271 227.38708
23.014 5.7160001 0.90799999 118
23.337 5.704 0.90700001 112
2.5910001 5.803 0.986 59
2.6094999 5.8039999 0.986 53.5
5.4269109 5.8406444 0.94682133 170.87502
11.47745 5.8417726 0.94919348 227.8387
5.4381876 5.943584 0.95096564 169.56897
11.487613 5.948555 0.94886124 222.58333
-0.083499998 6.0579996 0.91125 97
5.4492164 6.0456142 0.94926667 168.98334
11.496999 6.035778 0.95172226 222.55556
11.501667 6.0850005 0.95191664 222.5
5.4603868 6.149332 0.94945616 167.1579
11.508067 6.1531653 0.94773334 222.16667
5.4710226 6.2490649 0.94873339 170.22223
11.518001 6.2519994 0.9473002 220.43335
5.358223 6.3176665 0.9505555 134
5.4826474 6.3503509 0.94694465 168.40741
11.528268 6.3514338 0.94913352 218.30002
5.4920006 6.4341021 0.94999993 162.73334
11.538733 6.4520993 0.95146668 214.96667
5.4946661 6.5035558 0.95177776 124.22222
5.5059743 6.5585814 0.95213902 159.63889
11.550036 6.5545864 0.95055163 216.62068
5.5156684 6.6460443 0.95091122 158.44444
11.561666 6.6570001 0.95006675 213.23334
5.5268226 6.7454219 0.94764441 158.35556
7.316 6.7969999 0.912 100
7.7680001 6.783 0.96799999 127.5
7.888 6.7579999 0.98400003 104
7.9000001 6.7509999 0.98799998 92
11.573208 6.7510824 0.94737494 208.66667
5.5383978 6.8468876 0.94595551 155.93333
7.2865 6.8120003 0.90400004 128.5
7.3060002 6.8049998 0.90799999 114
7.4346671 6.8146667 0.92333335 100
7.5 6.8280001 0.93400002 91
7.6430001 6.8189998 0.95200002 121
11.585966 6.8479986 0.95203441 209.48276
5.5497913 6.9495125 0.94853497 156.53488
10.865384 6.9967699 0.9488461 182.23077
10.943625 6.9881248 0.9499166 180.04167
11.047758 6.9770403 0.95016003 179.08
11.154001 6.9655848 0.9522084 178.79167
11.247832 6.9555006 0.94961113 178.5
11.344126 6.9463749 0.94916666 176.20834
11.455208 6.9355006 0.94770849 180.66667
11.561792 6.9208336 0.94787496 203.70834
5.561729 7.0559759 0.95127267 155.59091
9.9446802 7.0955191 0.95008004 190.56
10.048095 7.0856552 0.95078123 188.125
10.154384 7.0744243 0.95111543 187.19232
10.24884 7.0636406 0.94787991 187.59999
10.343918 7.0526004 0.94940007 186.67999
10.439759 7.0421591 0.94879997 184.36
10.537639 7.0321994 0.9488399 180.15999
10.63748 7.0217199 0.95059997 181.36
10.740841 7.0104804 0.94947994 179.36
10.815001 7.0021663 0.95050001 178.75
5.572556 7.1516962 0.95119435 156.25
8.9761896 7.1963806 0.95376188 196.90477
9.0492706 7.1890016 0.94926924 196.07693
9.1424408 7.1795316 0.94823545 197.79411
9.2487087 7.1684704 0.95005876 198.38235
9.3541193 7.1575589 0.94767648 194.41176
9.4512959 7.1473694 0.95018512 190.85185
9.5490322 7.1368809 0.94978791 189.48485
9.6491938 7.1265779 0.95111543 189.5
9.7485456 7.1156363 0.94887877 188.09091
9.8515997 7.1048794 0.94803989 189.92
9.9090004 7.0999999 0.91100001 191
5.5835776 7.2501569 0.94915563 156.42223
7.8959999 7.2989998 0.97500002 139
7.9968004 7.2989998 0.95240003 195.60001
8.0523443 7.2946296 0.94611424 199.60001
8.151001 7.2842507 0.95199984 200.8
8.2504482 7.2731571 0.94597375 204.36842
8.3482285 7.2623725 0.95099998 204.54286
8.4443426 7.2522111 0.95063162 204.71053
8.550169 7.240828 0.94924402 199.60974
8.6561432 7.2296572 0.948057 201.94286
8.7555714 7.2198286 0.94951421 198.08571
8.8558865 7.2094564 0.94911432 198.39999
8.9279995 7.2020006 0.94514292 197.64287
5.5947061 7.3491473 0.94914705 156.76471
7.3453994 7.3591995 0.90459996 152.40001
7.4516001 7.355401 0.91180003 180.2
7.5476875 7.346313 0.91806239 190.1875
7.6509085 7.3343635 0.92418182 198.81819
7.7549629 7.3225565 0.93077773 197.74074
7.8529243 7.3125772 0.93446147 201.26924
7.9473677 7.3038659 0.93730009 200.13335
0.014 7.4809999 0.95700002 93
5.6062894 7.4503422 0.95336837 156.26315
5.1957502 7.599 0.921 221.75
5.2488332 7.5930839 0.94943333 227.65001
5.3464746 7.5810575 0.9501791 228.43283
5.4528093 7.5690145 0.94963241 230.11765
5.5528979 7.5571523 0.94996607 234.49153
5.6119227 7.5356932 0.94646156 208.11539
4.2649808 7.6956868 0.94998157 238.31482
4.349 7.6868744 0.9494167 235.76389
4.4462538 7.6770148 0.94963384 236.22534
4.5495892 7.6664743 0.94967502 232.60001
4.6548557 7.6554437 0.94945693 229.78572
4.7552428 7.6459699 0.94912863 226.05714
4.850358 7.6373053 0.94920355 228.40678
4.9448423 7.6266427 0.94925725 231.54286
5.0466537 7.6143508 0.95021731 227.33334
5.1481423 7.6043773 0.95106262 225.84375
3.2911255 7.7985611 0.94587493 242.5
3.3505175 7.7920866 0.949494 243.26505
3.4515183 7.7811303 0.9498353 242.12941
3.5522294 7.7698908 0.94910842 242.85541
3.650104 7.7594285 0.94887006 240.64935
3.747581 7.7508354 0.95006335 239.27849
3.8485548 7.7394924 0.94974077 240.20988
3.9469995 7.729404 0.94976383 237.69444
4.0468163 7.7200341 0.94998771 237.30864
4.1468186 7.7094293 0.94966668 238.54167
4.2119985 7.702002 0.94785184 239.51852
2.3682694 7.8959804 0.94721168 245.09616
2.4497602 7.88726 0.94955224 246.5625
2.5506601 7.8770008 0.95024711 245.96471
2.6510096 7.8665152 0.94965255 243.53685
2.7515767 7.8551884 0.950212 242.8353
2.8489034 7.8450928 0.9492262 240.84525
2.9463687 7.8352246 0.94913083 241.58334
3.049859 7.824635 0.94979572 240.84946
3.1530719 7.8148541 0.94970578 244.20001
3.2421777 7.8041043 0.95050746 243.3582
1.3833183 7.998045 0.93936366 246.09091
1.4474537 7.9912572 0.94919586 244.31958
1.5494584 7.9797926 0.94991654 246.41667
1.6524067 7.9702587 0.94911456 245.6875
1.7499996 7.9620271 0.94948262 246.51724
1.8475513 7.9518943 0.94996893 246.79167
1.9503655 7.9402924 0.94890642 244.375
2.0488257 7.9307799 0.95003492 243.68605
2.1473157 7.9206219 0.94915783 246.68422
2.2512493 7.9090948 0.94887489 245.60417
2.3224685 7.9016237 0.95365644 245.78125
0.061999999 8.0699997 0.96399999 90
0.14666668 8.0761671 0.91250008 119.16667
0.24633332 8.0854445 0.90688884 155.22223
0.36599997 8.0805721 0.91447604 169.80952
0.45138091 8.0946417 0.94846427 239.69048
0.54588526 8.0853539 0.94981253 242.38542
0.64763927 8.0753012 0.94976306 242.37112
0.74887586 8.0647144 0.95002073 246.03091
0.85022694 8.0534859 0.94941252 246.55669
0.95153618 8.0428858 0.94948465 246.93814
1.0527081 8.0341778 0.95016658 247.15625
1.1521617 8.0237331 0.94872046 246.68817
1.2480115 8.013936 0.95065939 244.83517
1.3350812 8.0035982 0.95236468 244.67567
0.080899976 8.1334515 0.97434998 194.2
0.15290673 8.1221733 0.95976007 226.25334
0.25201207 8.1122561 0.95662183 229.96341
0.34977457 8.1046076 0.96161973 234.50703
0.40900001 8.1000004 0.97933334 246.33334
-14.569 -14.618 1.067 168
-8.8199997 -14.634 1.006 215
-8.7490005 -14.641 1.0067501 200.25
-8.6689997 -14.653 1.0074999 201
-8.5670004 -14.668667 1.0046667 199.66667
-8.4484005 -14.677401 1.0076001 192
-15.132999 -14.511999 1.0650001 186
-14.943 -14.548 1.066 184
-14.755 -14.583 1.066 175
-15.3265 -14.459 1.062 196.5
-15.332 -14.229 1.039 122
-14.71 -14.001 1.016 187
-14.550001 -14.023001 1.01 191.66667
-14.453667 -14.035667 1.0083333 191
-14.359001 -14.049334 1.0133333 183
-14.245 -14.061 1.0015 191.5
-14.153749 -14.076501 1.0120001 181.5
-14.023001 -14.0875 1.0055 188
-13.98 -14.097 1.013 178
-15.26 -13.914 1.0190001 145
-14.806 -13.986 1.005 240
-14.759 -13.993999 1.011 196.5
-8.1350002 -13.91 1.0935 63.5
-14.807 -13.863501 1.006 161.5
-8.6684999 -13.846001 1.089 71
-8.5563335 -13.814334 1.0933334 61.333336
-8.4580002 -13.836 1.0946667 59.666668
-8.3476667 -13.850333 1.0943334 60.666668
-8.2469997 -13.88 1.0923333 62.333336
-8.1630001 -13.857 1.097 57
-7.9495001 -13.891 1.097 55.5
-8.7320004 -13.716499 1.076 120.5
-8.7253342 -13.648666 1.0806668 105
-7.8204999 -13.646 1.0965 51.5
-7.7690001 -13.616 1.097 51
-15.764 -13.595 1.0140001 169
-8.7106667 -13.551001 1.0753334 115.66667
-7.8600001 -13.517 1.089 50.5
-8.7040005 -13.466 1.062 112
-8.6905003 -13.43575 1.0745 107.25
-7.8353338 -13.416334 1.095 51
-7.7750001 -13.429 1.087 51
-8.0010004 -13.389 1.087 50
-7.9449997 -13.3525 1.0895 50
-8.0323334 -13.251334 1.0796667 50.666668
-7.9676666 -13.258001 1.0903333 50.666668
-7.8325 -13.2765 1.0905 50
-15.206 -13.147 1.082 157
-15.187 -13.198 1.0930001 130
-8.2040005 -13.122 1.074 51
-8.1402855 -13.145857 1.0741428 51.285717
-8.0506668 -13.170001 1.0806668 51.666668
-7.968667 -13.146999 1.0903335 51
-8.1506672 -13.037001 1.085 52.333336
-8.0456676 -13.051333 1.0816667 51.666668
-7.975667 -13.047333 1.09 51.666668
-8.6494999 -12.937167 1.036 126.83334
-8.0265007 -12.929 1.085 51.5
-7.967 -12.9055 1.0880001 51.5
-7.4089999 -12.909 1.074 51
-14.618 -12.801 1.074 73
-14.573999 -12.843 1.0875 53
-14.258 -12.805 1.081 57
-14.1675 -12.837 1.0764999 61
-8.6367493 -12.84225 1.03475 132.75
-7.6739998 -12.806 1.076 50
-7.5165 -12.8525 1.067 51
-7.4700003 -12.8465 1.0725 52
-7.3385 -12.842 1.0715001 51
-14.6442 -12.752 1.0807999 78.599998
-14.323 -12.799 1.077 58
-14.2435 -12.7925 1.0845001 54.5
-14.171 -12.791 1.091 52
-8.6286001 -12.757401 1.0261999 131.8
-7.632 -12.772 1.075 50
-7.5319996 -12.7675 1.0669999 50.5
-7.4472499 -12.733751 1.075 52.25
-7.3790002 -12.746 1.069 53
-7.2529998 -12.749 1.069 51
-14.654334 -12.638167 1.0761667 99.666672
-8.6120911 -12.647818 1.0346365 143.36365
-7.6304998 -12.6425 1.0715001 51
-7.5556669 -12.656668 1.0723333 51.666668
-7.447 -12.642 1.0798334 52.833336
-7.3653336 -12.648001 1.0853333 52
-7.2468748 -12.663625 1.083125 51.625
-14.656144 -12.543858 1.0644286 120.57143
-8.6044292 -12.556286 1.0410001 150.57144
-8.5942497 -12.5475 1.084 95.25
-7.724 -12.511 1.0734999 51
-7.6277494 -12.54875 1.0749999 51
-7.548667 -12.542335 1.0788335 51.333336
-7.4517503 -12.56 1.08225 52.5
-14.651112 -12.458222 1.0628889 112.77778
-14.167 -12.5 1.084 51
-8.5927143 -12.455571 1.0424285 139.57144
-7.7589998 -12.445 1.075 51
-7.6558337 -12.453334 1.0741668 51.333336
-7.5949998 -12.46 1.081 51
-14.631374 -12.36025 1.064375 116.25
-14.074 -12.34 1.061 53
-13.808 -12.308 1.081 50
-13.636 -12.3555 1.0595 51.5
-8.5793333 -12.353499 1.0526667 124.83334
-7.7080002 -12.399 1.077 51
-14.6183 -12.2623 1.0599 121.8
-14.597 -12.241 1.016 121
-14.083 -12.238667 1.0626667 56
-13.985001 -12.246 1.0743334 51
-13.611 -12.225 1.0549999 51
-13.571 -12.235001 1.0645 51.5
-8.5678673 -12.251933 1.0462668 135.20001
-14.61025 -12.1625 1.0526251 144.75
-14.588 -12.139999 1.063 90.333336
-14.0575 -12.138749 1.0707501 53.5
-13.9615 -12.1485 1.079 50.5
-8.5542316 -12.139307 1.0427693 135.38461
-6.9679999 -12.106 1.056 53
-14.604751 -12.046 1.0274999 170.5
-14.5862 -12.027 1.0780001 103
-14.103001 -12.055 1.063 60
-14.089001 -12.058333 1.0763334 53
-8.5450001 -12.0507 1.0440999 143.40001
-8.4860001 -12.006 1.087 58
-7.4039998 -12.01 1.049 50
-7.343667 -12.013667 1.057 52.666668
-7.2450004 -12.044001 1.0573334 52.833336
-7.1363335 -12.022501 1.0613333 56
-7.0507774 -12.046333 1.0608889 56
-6.9561663 -12.079333 1.0506667 55.5
-6.9000001 -12.094 1.062 55
-14.601 -11.997 1.018 176
-14.587545 -11.95209 1.0494546 144.63637
-14.118667 -11.961668 1.0776666 52.666668
-8.5234165 -11.941417 1.0421666 152.25
-7.448 -11.974501 1.0616666 55
-7.3569999 -11.978667 1.0660001 57.333336
-7.2636671 -11.995334 1.067 59.333336
-14.573231 -11.856153 1.0533845 140.69231
-13.742001 -11.8365 1.0875 50.5
-13.519333 -11.828334 1.0743333 51
-13.454 -11.821001 1.0723333 51.666668
-13.352333 -11.841333 1.0563334 51.333336
-13.247 -11.8225 1.0615001 52.5
-13.1455 -11.8135 1.0617499 52.25
-8.5224991 -11.858625 1.036625 160.125
-14.562166 -11.751583 1.0544167 146.08334
-14.054501 -11.741 1.061 56
-13.75 -11.799 1.079 51
-13.526 -11.784 1.072 51
-13.3455 -11.790501 1.069 52
-13.2465 -11.7625 1.073 52
-13.1645 -11.7495 1.077 52.5
-13.0935 -11.745 1.0805 53
-8.5145454 -11.764544 1.0344546 158.63637
-14.552691 -11.653924 1.0509231 149.69231
-13.14175 -11.639999 1.0805 52
-8.5048571 -11.664287 1.0265714 154.28572
-8.4980001 -11.615 1.016 160
-14.543464 -11.554232 1.0472308 158.15385
-13.731001 -11.573334 1.0650001 50.666668
-13.132 -11.558001 1.087 55
-8.5045004 -11.577999 1.0434999 127.5
-8.4901676 -11.544001 1.0171667 151.66667
-14.533693 -11.457385 1.0514616 153.07693
-13.97 -11.478 1.0650001 54
-13.895 -11.446 1.066 51
-13.719 -11.475 1.059 51
-13.662 -11.457 1.064 50
-13.537 -11.41 1.087 51
-13.221 -11.402 1.0930001 53
-13.1722 -11.4474 1.086 53
-13.079333 -11.424 1.0643333 50.666668
-8.4782505 -11.45175 1.0157501 140.5
-6.5479999 -11.442 1.02 60
-14.524374 -11.354563 1.0431875 162.4375
-13.970667 -11.361334 1.0630001 56.666668
-13.8335 -11.3225 1.069 50.5
-13.771 -11.329 1.0755 51
-13.628666 -11.370667 1.0716667 51
-13.526 -11.3575 1.0769999 51
-13.33 -11.351 1.0635 51
-13.243667 -11.373333 1.075 51
-13.166 -11.384 1.068 50
-8.4623337 -11.355667 1.0103333 147.33334
-7.0320001 -11.343 1.02 61
-14.5116 -11.246333 1.0536001 146.33334
-14.01 -11.277 1.089 51
-13.968001 -11.248801 1.069 55.799999
-13.844999 -11.245 1.0725 51
-13.7565 -11.2305 1.079 51
-8.4440002 -11.242334 1.0093334 138.66667
-14.5055 -11.17375 1.04725 159.75
-14.492778 -11.125112 1.0564444 155.44444
-13.943667 -11.137001 1.0690001 55.666668
-8.4320002 -11.11 1.0039999 140
15.57875 -11.132999 1.038 133.5
-14.489845 -11.04623 1.0503078 151.92308
-13.937799 -11.047 1.0722001 55.799999
15.636874 -11.056125 1.0296249 158.375
-14.479429 -10.949929 1.0494285 149.92857
-13.943251 -10.951751 1.0730001 55.25
-13.042 -10.909 1.05 52
-12.952667 -10.936999 1.052 51.333336
-12.898 -10.955 1.053 51
15.64325 -10.943376 1.023375 201.75
-14.469 -10.8505 1.0432857 157.57144
-13.929801 -10.8594 1.0742 54.799999
-13.431 -10.811 1.066 52
-13.222 -10.849501 1.0485001 52
-13.159 -10.8535 1.0545 52
-13.052666 -10.872 1.0530001 53
-12.960751 -10.861751 1.0604999 52.25
-12.819 -10.833 1.058 52
-12.794 -10.894 1.052 51
15.6535 -10.851749 1.0265 198.75
-14.454929 -10.749073 1.0515001 143.28572
-13.955001 -10.7664 1.0733999 55.400002
-13.457199 -10.7488 1.0658001 51.400002
-13.3365 -10.776501 1.0650001 51
-13.237667 -10.765333 1.0573334 51.666668
-13.163834 -10.755668 1.0696667 52.5
-13.07 -10.739 1.0715001 51.5
-12.724 -10.738501 1.056 52.5
15.664401 -10.754 1.0287 198.8
-14.440925 -10.648847 1.0483078 142.46155
-13.934668 -10.66 1.0693334 55.666668
-13.524 -10.636 1.066 52
-13.476667 -10.644334 1.0793333 50.666668
-13.359 -10.698 1.073 50
-13.159332 -10.655667 1.0910001 52
-13.086 -10.6565 1.0735 52
15.6772 -10.647201 1.028 200.10001
-14.428929 -10.553785 1.0537144 134.07144
-13.920799 -10.556999 1.0716 53.600002
-13.887 -10.531 1.082 51
-13.5305 -10.5585 1.0725 51
-13.428333 -10.533334 1.067 50.666668
-13.117 -10.585 1.069 51
-13.085501 -10.5595 1.0734999 51.5
-12.663 -10.565 1.059 56
15.684799 -10.551801 1.017 166.8
-14.424688 -10.452812 1.0428748 155.4375
-14.395 -10.426 1.0915 60
-13.9262 -10.445399 1.0754001 52.400002
-13.898001 -10.4165 1.0705 53
-13.530251 -10.429251 1.07425 51
-13.487 -10.4295 1.073 51
-13.062 -10.474 1.072 51.5
15.689751 -10.4555 1.0190001 142.25
15.702 -10.42 1.006 190
-14.427125 -10.3495 1.024375 155.875
-13.927 -10.351667 1.0736668 51.666668
-13.559 -10.363 1.074 51
-13.4865 -10.362 1.0805 51
15.696 -10.389 1.025 140
15.707001 -10.343667 1.0178334 170
-14.451 -10.26 1.01 103
-13.9235 -10.2725 1.072 50.5
-13.851 -10.259 1.054 53
-13.468 -10.24 1.077 51
15.694 -10.274 1.046 104
15.7185 -10.247875 1.021125 175.25
-13.913 -10.171 1.071 51
-13.864 -10.134501 1.0685 51.25
-13.450999 -10.157625 1.0734999 51.25
-13.0735 -10.1625 1.0695 51
-12.969 -10.199 1.064 51
-12.704 -10.147 1.0549999 51
-12.6525 -10.1455 1.059 57
15.7306 -10.143299 1.0293001 178.8
-13.846 -10.041 1.074 51
-13.712 -10.077 1.069 51
-13.656 -10.062 1.071 50
-13.548 -10.035 1.074 51
-13.464 -10.0566 1.0752001 51
-12.748 -10.078 1.058 50
-12.665668 -10.064667 1.0610001 56
15.744222 -10.042223 1.0237777 206.22223
-13.5745 -9.9890003 1.0829999 51
-13.4444 -9.974 1.0766001 50.799999
-12.966 -9.9879999 1.0650001 51
-12.738 -9.9794998 1.056 50.5
-12.65325 -9.9640007 1.0664999 56.25
15.75175 -9.9586248 1.03475 196.875
-13.561501 -9.8745003 1.0780001 51
-13.494 -9.8649998 1.081 52
-12.956 -9.8769999 1.062 50
-12.6412 -9.8444004 1.0618001 53.799999
15.761636 -9.861455 1.0300001 204
-12.909 -9.7130003 1.05 51
-12.8905 -9.7375002 1.0569999 51.5
-12.642 -9.7584 1.058 52.799999
15.772667 -9.7545834 1.0305834 203.58334
-14.386 -9.6540003 1.003 98
-12.882 -9.6669998 1.045 51
-12.773 -9.6110001 1.059 51
-12.653999 -9.6505003 1.0651667 53.333336
15.784091 -9.6485462 1.0294546 199.9091
-14.36 -9.5319996 1 103
-12.833667 -9.5810003 1.0523334 51.666668
-12.788 -9.5970001 1.058 51
-12.654749 -9.566 1.0645 52
15.794101 -9.5497007 1.0319002 192.90001
15.8 -9.5129995 1 224
-14.365 -9.4569998 1.006 91
-12.928 -9.401 1.044 52
-12.855 -9.4666004 1.0502 51.799999
-12.736201 -9.4736004 1.0646 52.400002
-12.64925 -9.4742498 1.0675 51.75
15.806701 -9.4435997 1.0290999 199.8
-14.332 -9.3319998 1 101
-12.84625 -9.3600006 1.054 53.5
-12.75825 -9.3509998 1.05875 53.5
-12.662666 -9.3546667 1.0636667 52.666668
15.817274 -9.349 1.0300001 196.36365
-14.334 -9.2320004 1.007 82
-12.701 -9.2110004 1.064 54
-12.64875 -9.2402496 1.067 52.5
-12.6 -9.2840004 1.067 52
15.829 -9.2477512 1.0324999 198.5
-14.3165 -9.1315002 1.0065 80
-13.231 -9.1709995 1.062 53
-13.1335 -9.1404991 1.0625 52
-13.059 -9.125 1.062 52
15.841583 -9.1485014 1.0337502 202.66667
-13.226 -9.0450001 1.0655 54
-13.149 -9.066 1.064 52
-13.045 -9.0299997 1.0645001 51.5
15.853916 -9.0497503 1.0374999 196.83334
-14.282 -8.9960003 1.001 93
-13.234 -8.941 1.0725 54
-13.179801 -8.9793997 1.0757999 53.600002
-13.0825 -8.9834995 1.072 51.5
-12.958 -8.9694996 1.0675 50.5
-12.855 -8.9705009 1.063 51.5
15.865582 -8.9509163 1.0328333 205.33334
-14.257999 -8.8439999 1.0039999 85
-13.342 -8.8079996 1.08 52
-12.736 -8.8280001 1.061 52
-12.677 -8.8266668 1.0453333 53.666668
-12.235 -8.8970003 1.045 52
15.876272 -8.853363 1.0305455 214.18182
-14.274 -8.7919998 1.002 108
-12.627001 -8.717 1.064 52.5
15.887085 -8.7538328 1.0306666 209.83334
-12.635333 -8.6643333 1.052 52
-12.542 -8.6009998 1.063 54
15.896 -8.6677771 1.0311111 208.55556
15.903334 -8.6200008 1.0420001 194.66667
-13.261 -8.5050001 1.0815001 53
-13.117 -8.5179996 1.071 51
-13.043 -8.5170002 1.094 51
-12.953501 -8.5395002 1.074 51.5
-12.855287 -8.5364294 1.0680001 54.285717
-12.754 -8.549201 1.0504 54.700001
-12.6623 -8.5572004 1.0634 54.799999
-12.570666 -8.5733337 1.0616667 54.666668
-12.457 -8.5305004 1.063 54
-12.3235 -8.5305004 1.053 52.5
-12.266001 -8.5706673 1.0546668 58
-12.1945 -8.5664997 1.0255001 56
15.909273 -8.5551825 1.0312728 208.09091
-13.322 -8.4390001 1.082 56
-13.248 -8.427 1.085 52.5
-13.162251 -8.4419994 1.0882499 51.5
-13.042334 -8.4735003 1.0780001 52
-12.940001 -8.4960003 1.075 51.333336
-12.8465 -8.4689999 1.07575 53
-12.781 -8.4840002 1.026 55
-12.38 -8.467 1.063 56
-12.277 -8.4870005 1.056 58
15.920666 -8.4534168 1.0305001 183.5
-13.3265 -8.3595009 1.084 56.5
-13.26575 -8.3444996 1.09375 51.5
-13.188499 -8.3654995 1.0945001 51
15.933154 -8.3473082 1.0315386 194.15385
-13.2775 -8.2825003 1.092 51
-12.751 -8.2810001 1.022 58
-12.251 -8.2209997 1.058 57
9.9371996 -8.2053995 1.0500001 154.60001
15.945417 -8.2451677 1.0348333 192.58334
-14.11 -8.1389999 1.001 108
-12.734 -8.1110001 1.026 58
-12.517 -8.1059999 1.0549999 52
-12.4515 -8.1192503 1.0599999 52.5
-12.3385 -8.1418333 1.0601667 53.333336
-12.2565 -8.1747494 1.0515001 54.25
9.9404011 -8.1487999 1.0487001 176.03334
15.954582 -8.1484175 1.0310833 204.66667
-14.154 -8.0690002 1.005 113
-12.544286 -8.0662861 1.0595715 52.714287
9.9500351 -8.0526342 1.0460666 177.46667
15.965834 -8.0535002 1.0343333 194.58334
-14.147 -7.9710002 1.003 113
9.9605713 -7.9494557 1.0453714 180
-14.1445 -7.8645 1.002 125.5
9.5283337 -7.8273335 1.0583334 57.333336
9.9721689 -7.8477015 1.0457667 180.76668
-14.134 -7.7550001 1.001 131
9.465601 -7.7482004 1.0666 61.200001
9.5466251 -7.7427502 1.061 58.375
9.9808578 -7.7539291 1.0445714 180.92857
-14.116 -7.6409998 1.0065 117.5
-4.5321422 -7.6044006 1.0366001 219.48572
-4.4530411 -7.6128983 1.0349799 214.58
-4.3685999 -7.6215997 1.0322001 201.02858
9.2959995 -7.6560001 1.066 58
9.3602505 -7.6402497 1.0669999 58.25
9.4453335 -7.6599998 1.0673335 59.666668
9.5563993 -7.6636004 1.0634001 58.600002
9.6094999 -7.645 1.0599999 54.5
9.8979998 -7.6040001 1.081 58
9.9798698 -7.6659131 1.0537392 157.13043
10.001599 -7.6212997 1.0293 205.40001
-14.119 -7.5739999 1.0005 141.5
-4.8188004 -7.5746002 1.04465 210.5
-4.7475362 -7.5789304 1.0403794 219.44827
-4.6480017 -7.5888515 1.04045 217.36668
-4.5780005 -7.597137 1.0428636 204
9.1563339 -7.5216665 1.062 57.333336
9.2630005 -7.5320001 1.0645001 57.5
9.3339996 -7.5510001 1.0656667 57.666668
9.4393339 -7.5576668 1.0666667 59.333336
9.5559998 -7.5532861 1.0654286 60.428574
9.6360006 -7.5706668 1.0623333 55.333336
9.9723339 -7.5548892 1.0741112 100.11111
10.00881 -7.5478096 1.0335715 204.61905
-14.1075 -7.4765 1.003 134.5
9.0684996 -7.421 1.0604999 59.5
9.1560001 -7.4549999 1.061 58.5
9.2395 -7.4359999 1.0632501 58.5
9.3509998 -7.4584999 1.0655 58.5
9.4502001 -7.4622002 1.067 58.799999
9.5556669 -7.4560003 1.0670002 59
9.6405001 -7.4735003 1.0664999 58
9.9683342 -7.4506664 1.0795001 76.333336
10.019448 -7.4487929 1.0363449 204.03448
8.9503336 -7.3403335 1.0596666 60
9.0317507 -7.3632503 1.0604999 60
9.1509991 -7.3554997 1.062 58.5
9.2473335 -7.3473334 1.0626667 58.333336
9.3607502 -7.3515 1.064 57
9.4630003 -7.355 1.066 57.5
9.5644999 -7.362 1.06625 58.25
9.6359997 -7.3545003 1.0647501 57.5
9.9790001 -7.3518004 1.0782 80.800003
10.028921 -7.3497605 1.0403199 199.51999
-14.702 -7.256 1.0120001 124
-14.697 -7.2189999 1.006 140
8.8497505 -7.2515001 1.0585001 60.5
8.9400005 -7.2510004 1.0593333 59.333336
9.0620003 -7.2556667 1.0604999 58.666668
9.1515007 -7.243 1.061 59
9.2582493 -7.2615004 1.0617501 58.5
9.3486671 -7.2380004 1.0626667 57.333336
9.4663334 -7.2533336 1.0646667 58
9.5367498 -7.2597504 1.0647501 58.75
9.6376677 -7.2510004 1.064 57.666668
9.7480001 -7.2189999 1.067 56
9.9715004 -7.2600002 1.0795 71
10.039582 -7.2522583 1.0388063 201.32257
8.6732006 -7.1254001 1.0598 63.200001
8.7531662 -7.1541667 1.0566667 62.166668
8.8570004 -7.1560001 1.057 60
8.9541664 -7.1511669 1.0585001 60.166668
9.0475006 -7.1420002 1.0595 60
9.1603336 -7.1475005 1.0599999 60.5
9.2547503 -7.1512499 1.0604999 60.25
9.3616667 -7.1423335 1.062 59.666668
9.4383345 -7.1503334 1.0633333 59.333336
9.5570002 -7.1479998 1.0647501 60
9.6496 -7.1576004 1.0654 59
9.7189999 -7.1409998 1.067 57
9.96525 -7.15025 1.0799999 66.25
10.047314 -7.1482506 1.0432501 192.53125
8.6710005 -7.0415001 1.0615 63.25
8.7496672 -7.0600004 1.0563333 63
8.8405008 -7.0511665 1.0578334 61.666668
8.9489994 -7.0369997 1.0595 61
9.0489998 -7.0498004 1.0603999 61.799999
9.1387501 -7.0615001 1.0617501 62.75
9.2506676 -7.0421672 1.0623333 61.5
9.3433342 -7.0603333 1.063 61
9.4436674 -7.0676665 1.0646667 60.333336
9.5511999 -7.0512004 1.0650001 59
9.6639996 -7.0539999 1.066 57.5
9.7349997 -7.013 1.0680001 58
9.8789997 -7.013 1.077 64
9.9589996 -7.0425 1.079 71
10.055733 -7.0473666 1.0446001 186.56668
8.6806669 -6.9803333 1.0616667 62
8.7385721 -6.9607148 1.0588572 62.000004
8.8615007 -6.9504995 1.05875 60.25
8.9514999 -6.9485002 1.0602499 60.25
9.0672503 -6.9477501 1.062 60
9.1542006 -6.9486003 1.0626 60.600002
9.2609997 -6.9584999 1.064 60
9.3382502 -6.9567499 1.0642501 59
9.4421673 -6.9654999 1.0655 59.166668
9.5536003 -6.9535995 1.0696 58.400002
9.6509991 -6.9749999 1.07075 59.25
9.7469997 -6.9753337 1.075 61.666668
10.074227 -6.9564838 1.0383871 197.87096
10.125 -6.9050002 1.072 105
8.6990004 -6.8759999 1.063 57
8.7321434 -6.8388577 1.0597143 60.000004
8.8368006 -6.8558006 1.058 60.600002
8.9483337 -6.8566666 1.0593333 60
9.0402508 -6.8370004 1.05975 58.75
9.1829996 -6.8730001 1.064 57
9.2456665 -6.8833332 1.0636667 56.666668
10.087811 -6.8554754 1.0273811 202.90477
10.125 -6.8487501 1.05925 102.5
8.941 -6.7969999 1.0599999 62
10.0965 -6.7635002 1.0189 193.60001
10.1058 -6.7399993 1.0247999 159.40001
10.094 -6.6720004 1.02325 119.25
10.10375 -6.6554999 1.00725 183.25
10.1045 -6.5880003 1.0025001 157.5
-21.323 -6.3200002 1.013 106
-21.282 -6.3670001 1.022 88
-20.757 -6.3800001 1.008 74
-21.354 -6.2855 1.005 118.5
16.223 -5.3109999 1.0574999 146.5
16.179001 -5.2515001 1.0780001 119
16.217001 -5.2431431 1.0562857 160
16.188999 -5.1989999 1.076 127
16.23488 -5.1420002 1.0471765 166.52942
16.280222 -5.0508332 1.0413336 182.88889
10.199 -4.9289999 1.074 77
10.232667 -4.914 1.0703334 115
16.288706 -4.9532938 1.0418824 190.4706
9.974 -4.8520002 1.0700001 69
10.035 -4.8400002 1.0723335 65.666672
10.14375 -4.8555002 1.0782499 71.5
10.244502 -4.8494997 1.0604546 152.45454
16.284876 -4.8594995 1.05375 137.875
16.305183 -4.844182 1.0298182 215.9091
9.9899998 -4.7979999 1.073 69
10.059334 -4.743 1.0780001 66.666672
10.156 -4.7522502 1.082 73.75
10.253899 -4.7486925 1.0508975 187.71796
16.291 -4.75 1.075 137
16.314234 -4.7469997 1.034 220.76471
8.1647501 -4.6202497 1.0480001 74.25
8.2494287 -4.632 1.0477142 75.857147
8.3392859 -4.6295719 1.0462857 76.285721
8.4338341 -4.6246667 1.0468333 75.833336
8.5371666 -4.6345 1.0465 74.333336
8.6009998 -4.6630001 1.046 74
10.06 -4.6459999 1.08 66
10.140249 -4.6367497 1.0847499 68.5
10.266173 -4.6475215 1.0460868 202.17392
16.298 -4.652 1.0769999 134.5
16.32243 -4.6513577 1.0388573 216.85715
7.2979999 -4.52 1.043 77
7.3532 -4.5239997 1.0420001 78.200005
7.4508576 -4.5337143 1.0405715 78.14286
7.552 -4.5392499 1.041625 78.25
7.6481428 -4.5435715 1.0424287 78.285721
7.7436247 -4.550375 1.042375 78
7.8474555 -4.5363641 1.0450001 77.090912
7.9534168 -4.5493336 1.0458333 75.583336
8.0606995 -4.5613999 1.0478001 74.700005
8.1549997 -4.5473337 1.0506667 78.833336
8.2442217 -4.5437775 1.0508889 81.444443
8.3465004 -4.5447502 1.0505 80
8.4383335 -4.5536666 1.0495 78.833336
8.507 -4.5700002 1.049 78
9.2845001 -4.5524998 1.0039999 72
9.3839998 -4.5939999 1 62
9.4169998 -4.5960002 1.001 63
10.156 -4.559 1.0880001 69.5
10.276726 -4.5554008 1.048775 195.22501
10.331078 -4.5153842 1.0403078 224.46155
16.331579 -4.5523157 1.038579 217
-13.776199 -4.4344001 1.05665 186.05
-6.3183336 -4.4033337 1.0033333 128.33334
-6.2919998 -4.4089999 1.002 114
7.1599998 -4.4266667 1.0466667 76.333336
7.2550001 -4.4390001 1.0465715 77.928574
7.3554163 -4.4479165 1.0471668 78.666672
7.4515715 -4.4477859 1.0478573 78.857147
7.5538464 -4.457231 1.0482309 79.230774
7.6522503 -4.4581671 1.0487499 81.166672
7.7500706 -4.4557142 1.0489285 82.428574
7.8522501 -4.451375 1.05 84.875
7.9446664 -4.4470005 1.0505557 83.777779
8.0561247 -4.4526253 1.052375 79.625
8.1554279 -4.4607143 1.0538571 79.714287
8.2528744 -4.460125 1.054125 79.875
8.3555002 -4.46175 1.055625 79.625
8.4139996 -4.4790001 1.053 83
10.13775 -4.45925 1.0864999 68.5
10.251572 -4.4712858 1.0885714 84.428574
10.340591 -4.4500909 1.0457503 217.31819
16.342644 -4.4475884 1.0377059 222.11765
-13.766322 -4.3455601 1.05416 189.67999
-7.2266803 -4.3030405 1.04836 174.95999
-7.1504993 -4.3113279 1.0480516 172.65517
-7.0479994 -4.3219337 1.0508335 169.41667
-6.9464245 -4.3317299 1.0525763 169.93221
-6.8475409 -4.3416057 1.0515738 167.16393
-6.7512469 -4.3500767 1.0528153 165.18462
-6.6572022 -4.3582878 1.0482035 158.47458
-6.565444 -4.3727779 1.0127779 152.22223
-6.4354005 -4.3845997 1.0032001 139.2
-6.3616672 -4.3961668 1.0075001 137.66667
7.1509333 -4.3524003 1.0505333 79.666672
7.2524004 -4.3483996 1.0502 79.400002
7.3532224 -4.3510003 1.0511111 79
7.4507494 -4.3486252 1.0517501 78.75
7.5474448 -4.3585553 1.0519999 78.888893
7.6515002 -4.3552999 1.0526001 80.400002
7.7513332 -4.3610001 1.0536666 81.5
7.8461108 -4.363111 1.0546666 82.555557
7.9477696 -4.346231 1.0553077 81.153847
8.0512724 -4.3431821 1.0566365 78.545456
8.1458883 -4.359889 1.0571111 78
8.2384281 -4.3704286 1.0574286 78.571434
10.152801 -4.3436003 1.0886 67.400002
10.266167 -4.3555002 1.0916667 78.5
10.351501 -4.3477297 1.0474166 203.9375
16.349468 -4.3530006 1.0406001 216.46667
-13.753412 -4.2564707 1.0461764 176.41176
-13.6595 -4.2270002 1.084 77.5
-13.549 -4.2020001 1.096 54
-13.165501 -4.2195001 1.0755 52
-13.093 -4.223 1.077 53
-7.662581 -4.240766 1.049642 202.23457
-7.5485129 -4.2654681 1.0531914 172.36169
-7.4495692 -4.2773266 1.0496206 171.81035
-7.3512096 -4.2882504 1.0506457 173.02084
-7.2760692 -4.2971025 1.053069 173.03448
-6.9435 -4.2516251 1.0983751 83.375
-6.8496995 -4.2550998 1.0965999 83.200005
-6.7492995 -4.2519002 1.0949 82.900002
-6.6492004 -4.2473001 1.0937001 82
-6.5542002 -4.2414999 1.0931001 82.800003
-6.4885001 -4.2309999 1.0935 82
7.1768999 -4.2541003 1.0545 80.300003
7.2492313 -4.2530003 1.0535386 79.538467
7.3500719 -4.2503572 1.0544286 79.357147
7.4450006 -4.2555385 1.0547693 79.92308
7.5466003 -4.2519999 1.0550001 79.400002
7.649538 -4.2479229 1.055077 79.384621
7.7501545 -4.2517695 1.0557692 78.076927
7.8478007 -4.2606997 1.0571001 77.900002
7.9386249 -4.2374997 1.057 75.875
8.0465717 -4.2337146 1.0600001 76.714287
8.1488571 -4.2391429 1.0598571 77.571434
8.2375002 -4.2862501 1.058 72.75
10.147667 -4.2250004 1.0913334 64
10.2596 -4.2556 1.0952001 72.400002
10.361164 -4.2458982 1.0511019 212.44897
16.359001 -4.264143 1.0389286 220.85715
-13.7285 -4.1914997 1.0304999 118
-13.664401 -4.1626 1.0402 88.400002
-13.550358 -4.1359997 1.0730715 87.14286
-13.140999 -4.1482 1.0722001 53
-13.0425 -4.1624999 1.0775 53
-12.949667 -4.1410003 1.0780001 54
-12.8535 -4.1020002 1.079 54
-7.6841717 -4.1539221 1.0498438 212.40625
-7.035429 -4.1511436 1.099 79.285721
-6.9530005 -4.1524673 1.0977334 79.000008
-6.8475337 -4.1511335 1.0959332 78.600006
-6.7493572 -4.145072 1.0944287 79.285721
-6.6521177 -4.1502352 1.0935884 81.529411
-6.5528746 -4.1467505 1.0931877 83
-6.4551663 -4.1522775 1.0937221 84.5
-6.3726254 -4.1359997 1.095 84.375
7.1876001 -4.1500001 1.0584 80.200005
7.2466364 -4.1540003 1.0563637 79.454544
7.3475003 -4.151875 1.0571251 79.375
7.4477 -4.1529999 1.0575001 79.300003
7.5520997 -4.1494002 1.0576 79.800003
7.6483746 -4.1461248 1.0575 80.25
7.7464437 -4.1433334 1.057778 79
7.855001 -4.1507273 1.0556364 81.181824
7.9427781 -4.1517777 1.0556666 75.777779
8.04175 -4.1715002 1.061 76.5
10.146 -4.1550002 1.092 62
10.226001 -4.1476669 1.0966667 64
10.370293 -4.1516457 1.0539167 221.64584
16.372057 -4.1450591 1.0332353 228.76471
-13.54274 -4.0497828 1.0597825 86.782608
-13.104 -4.0819998 1.079 54
-13.031 -4.0865002 1.079 53.5
-12.93125 -4.0327501 1.079 53.75
-12.8265 -4.0225 1.0795 54
-12.753668 -4.0550003 1.0786667 54
-12.662666 -4.0556669 1.0780001 54
-12.546 -4.0300002 1.077 55
-12.492 -4.0300002 1.077 56
-7.6706433 -4.0537539 1.0498357 213.10959
-7.0120001 -4.033 1.099 79
-6.9581003 -4.0544004 1.0984001 79.200005
-6.8518 -4.0504003 1.0965999 78.200005
-6.7509003 -4.0482998 1.0948001 78.5
-6.6491537 -4.0482306 1.0940769 80.692314
-6.5495834 -4.0506668 1.0941666 82.5
-6.451118 -4.0467062 1.0947059 84
-6.3506112 -4.047111 1.0951111 84.555557
-6.2586427 -4.0392146 1.095857 85.214287
-6.1850004 -4.0220003 1.096 85
3.8537369 -4.0058937 1.0314527 175.60715
3.9526367 -4.0157809 1.0371979 171.16484
4.0523171 -4.0254416 1.0376931 173.20454
4.1494422 -4.0325336 1.0380698 169.74419
4.2104897 -4.0223918 1.0315492 207.88235
7.2479997 -4.0551877 1.0596874 79.8125
7.3529377 -4.0520005 1.0594374 79.5625
7.454308 -4.0520768 1.0597693 79.46154
7.5491548 -4.0443082 1.060077 79.615387
7.6510005 -4.0556669 1.0605834 79.75
7.7489176 -4.0444164 1.0609167 79.25
7.848875 -4.0592499 1.060625 77.25
7.9245 -4.0605001 1.0615001 76.5
10.1595 -4.0710001 1.095 62
10.3843 -4.0528498 1.0551001 219.375
16.377186 -4.0507503 1.041875 213.375
-13.534762 -3.953048 1.0589048 88.285713
-13.487667 -3.9430003 1.0960001 67
-12.954333 -3.9466667 1.073 53
-12.856 -3.9435 1.0795 54
-12.745334 -3.9526668 1.0799999 54
-12.659 -3.961 1.08 53
-12.5935 -3.9665 1.0785 53.5
-12.456 -3.9663334 1.0766667 55
-12.341499 -3.9384999 1.0775 56.25
-12.264999 -3.914 1.0779999 56.5
-12.1665 -3.9165001 1.079 57
-7.6590819 -3.9492147 1.0507973 215.87839
-6.9476156 -3.9575384 1.0985385 79.307693
-6.8518672 -3.9523337 1.0971333 79.666672
-6.7539334 -3.9525335 1.0955333 79.933334
-6.6503882 -3.9538889 1.0948333 81.166664
-6.5465627 -3.9572504 1.0953125 81.75
-6.4458756 -3.9499373 1.0954374 83.25
-6.342833 -3.941556 1.0958334 84.277779
-6.2510591 -3.9430592 1.0963529 85.352943
-6.1571107 -3.9494448 1.0966667 85.055557
-6.0683331 -3.9304445 1.0966667 85.444443
-5.9829998 -3.9070001 1.092 76
2.5940001 -3.904 1.02 120
2.7857862 -3.9042139 1.0101429 191.07144
2.8563704 -3.9098322 1.0235955 187.8427
2.9466119 -3.9172671 1.0351437 189.28058
3.0484183 -3.9251859 1.0376114 189.08633
3.1488335 -3.9341156 1.0376743 184.68117
3.2487018 -3.9410205 1.0387517 177.40425
3.3477697 -3.9502745 1.040437 175.25926
3.4489868 -3.9562476 1.0428115 169.97102
3.5491281 -3.9646993 1.0438046 167.72932
3.6497707 -3.9737554 1.0432062 162.83969
3.7493584 -3.9814386 1.0441464 160.37398
3.8426993 -3.9584899 1.0676416 119.32076
3.9501083 -3.9535949 1.0699998 101.45947
4.0496159 -3.9542048 1.0699998 102.97436
4.1500483 -3.9580491 1.0691952 111.68292
4.2214775 -3.9495251 1.0367156 194.55963
7.2612729 -3.948091 1.063 79.636368
7.3486009 -3.9535005 1.0617001 79.400002
7.4502001 -3.9482 1.0622 81.099998
7.5406246 -3.9417503 1.0620002 79.375
7.6442499 -3.9520001 1.06275 78.083336
7.7512732 -3.9464545 1.0632727 79.545456
7.845583 -3.9619999 1.0626667 79.25
7.9420004 -3.98175 1.0635 78.25
8.0650005 -3.9316669 1.0653334 77.666672
8.1201668 -3.9440002 1.0613334 74.833336
10.15 -3.9349999 1.098 63
10.393667 -3.9623101 1.0546907 235.92857
10.400778 -3.9185557 1.0334445 252
16.389296 -3.9514709 1.0380589 223.82353
-13.708 -3.8674998 1.0074999 158
-13.658333 -3.8443334 1.0218334 99.666672
-13.533452 -3.8512504 1.05715 84.700005
-13.48575 -3.8547499 1.092 69.75
-12.942751 -3.8499999 1.07125 52.75
-12.877 -3.8655002 1.07425 53.75
-12.752601 -3.8396001 1.0804 54
-12.6635 -3.8845 1.0799999 53
-12.587 -3.8859999 1.079 53
-12.474001 -3.8775001 1.076 53
-12.365667 -3.8576667 1.0740001 54.666668
-12.246 -3.8150001 1.0740001 56.333336
-12.151501 -3.8439999 1.07675 56.75
-12.048 -3.8529999 1.077 57
-11.972 -3.8534999 1.0775 57.5
-7.6483688 -3.8464532 1.0502329 218.47945
-6.9184999 -3.8670001 1.099 79.25
-6.8460913 -3.8463638 1.0982728 80.909096
-6.752687 -3.8429375 1.097375 82.25
-6.64779 -3.8456843 1.0967368 84
-6.5493121 -3.8509376 1.0966876 83
-6.4529996 -3.8556468 1.096647 83.882355
-6.3569231 -3.8533077 1.0970001 84
-6.2521248 -3.8460622 1.097 84
-6.1521053 -3.8433681 1.0969474 84.473686
-6.0528426 -3.8467894 1.0967369 84.84211
-5.956625 -3.8460627 1.0958124 84.5
-5.8713331 -3.8253334 1.0948334 83.333336
-3.3543749 -3.8091252 1.0881251 80.375
-3.2722499 -3.8017502 1.08725 84.25
-2.9106669 -3.8123336 1.0893334 81
-2.8485715 -3.8120005 1.0870714 88.357147
1.6608573 -3.8094287 1.0224285 138.42857
1.7772499 -3.8045011 1.0092143 169.14287
1.8587666 -3.8089559 1.0245768 195.62044
1.9529184 -3.8180826 1.0329177 192.02055
2.0472212 -3.825479 1.035216 201.68422
2.1507375 -3.8344162 1.047073 193.68613
2.2516346 -3.8423979 1.0446732 184.51282
2.3485346 -3.8506677 1.0402836 184.84492
2.4278669 -3.8472838 1.0583166 151.26668
2.5622916 -3.8805413 1.0176251 136.375
2.6438963 -3.8865516 1.0505862 143.10345
2.7765999 -3.8952 1.0171999 129.40001
2.8477499 -3.8775001 1.04625 100.25
2.9554546 -3.8485267 1.068055 106.87273
3.0468745 -3.8512712 1.0673547 106.64584
3.1491749 -3.848386 1.0672988 103.96491
3.2497954 -3.8478642 1.0678186 101.45455
3.3506877 -3.8488541 1.0686878 99.895836
3.4479523 -3.8472614 1.0691192 101.30952
3.5476744 -3.8522091 1.0690001 99.697678
3.6506898 -3.8530445 1.0686449 98.35556
3.7473745 -3.8488135 1.0691668 98.0625
3.8504868 -3.8471618 1.0699998 97.864868
3.9492891 -3.8561578 1.0708154 100
4.0515256 -3.85145 1.0718247 99.224998
4.1475997 -3.8509557 1.0716439 105.46667
4.2459798 -3.8507292 1.040795 178.35898
4.3388467 -3.8292859 1.0386734 193.81633
7.2817497 -3.85325 1.06575 80
7.3475618 -3.8570001 1.0641875 80.1875
7.4530668 -3.8484001 1.0644001 80.933334
7.5500007 -3.8543 1.0641001 78.900002
7.6507773 -3.8586667 1.0646667 78
7.7311664 -3.8518333 1.0648334 77
8.0679998 -3.8934999 1.0645001 77.5
10.125 -3.8570001 1.098 63.666668
10.395 -3.8699999 1.096 175
10.407106 -3.8538716 1.0478301 248.82977
16.388668 -3.8643336 1.0598334 192.33334
16.403919 -3.8389168 1.0299168 237.58334
-13.660335 -3.7150002 1.007 107.33334
-13.53345 -3.7494004 1.0387499 93.950005
-13.486444 -3.741111 1.0853335 86.888893
-12.918 -3.7409999 1.0700001 53
-12.864801 -3.7572 1.0722001 53.600002
-12.755251 -3.7287502 1.077 54.75
-12.666 -3.7290001 1.0785 53.5
-12.6 -3.7349999 1.079 52
-12.441 -3.7985001 1.0734999 52.5
-12.342751 -3.7432499 1.0714999 54.25
-12.2495 -3.74 1.0734999 57.5
-12.154333 -3.753 1.0746667 58
-12.037499 -3.77475 1.076 58
-11.943001 -3.7404003 1.0764 59.200001
-11.8498 -3.7537999 1.0768 61.600002
-11.793 -3.7390001 1.079 65
-7.6373978 -3.7454112 1.0497534 220.17809
-6.842 -3.799 1.099 81
-6.7545452 -3.749455 1.0986363 79.454544
-6.6548185 -3.7508183 1.0975455 80.818184
-6.5513568 -3.7492142 1.0968573 83.285721
-6.4499998 -3.7439475 1.0962105 84.578949
-6.3503332 -3.7582223 1.0965 83.444443
-6.252934 -3.751467 1.0958667 82.400002
-6.1533332 -3.7464004 1.0956665 83.466675
-6.049263 -3.7441576 1.0961579 83.631577
-5.9523158 -3.7443156 1.0954735 81.368423
-5.8510528 -3.7479472 1.0943158 81.368423
-5.7574382 -3.7416875 1.0928125 80.75
-5.6568575 -3.7201433 1.0904286 80.428574
-5.5170002 -3.7219999 1.089 74
-5.4560003 -3.7214289 1.0887144 76
-5.3765001 -3.7220001 1.0880001 76.5
-5.2709999 -3.7030001 1.0880001 80
-5.1030002 -3.701 1.086 81
-5.0949998 -3.7049999 1.086 78
-4.9450006 -3.7031665 1.0845001 82.333336
-4.8419003 -3.7100003 1.0835999 81.599998
-4.7350006 -3.7154546 1.0829999 81.909096
-4.6616669 -3.7183335 1.0837779 83.333336
-4.5512004 -3.7161005 1.0848001 88.800003
-4.4498577 -3.7234759 1.0841428 87.333336
-4.3536954 -3.7233043 1.0839131 90.13044
-4.2501483 -3.7239258 1.0843703 90.962967
-4.1519232 -3.7246544 1.0848846 92.730774
-4.0522861 -3.7284291 1.0849288 94.357147
-3.9563715 -3.733743 1.0845996 92.314285
-3.8492939 -3.7367642 1.0846467 91.088234
-3.7486219 -3.7378917 1.0848644 92.864868
-3.6450231 -3.741364 1.085636 94.409096
-3.551085 -3.7482548 1.0860423 93.765953
-3.4518578 -3.7489526 1.0859998 95.452385
-3.3524778 -3.7495432 1.0867829 96.54348
-3.2493017 -3.749378 1.0871705 99.113213
-3.1891668 -3.7243335 1.0876669 102.66667
-2.8314118 -3.7677939 1.0884117 99.352943
-2.7914443 -3.7407777 1.087889 95
0.77796721 -3.7029004 1.0267254 241.21979
0.85010922 -3.7097654 1.0297383 235.86497
0.95057362 -3.7190375 1.0316017 228.84464
1.0509394 -3.7274342 1.0322131 225.05621
1.1508172 -3.734967 1.0329804 222.1151
1.2468075 -3.7430124 1.0343186 213.22423
1.3494666 -3.7528117 1.0361508 203.60231
1.4498439 -3.7613311 1.0369183 198.61339
1.5500988 -3.7686765 1.0379087 194.81061
1.6407541 -3.770879 1.0448922 167.82353
1.7333333 -3.7449999 1.0480001 100.33334
1.8559998 -3.7861664 1.0491112 102.77778
1.9540932 -3.7474134 1.0619862 112.86667
2.0496278 -3.7491803 1.0625 113.21795
2.1483951 -3.7470784 1.06329 110.10526
2.2491539 -3.748076 1.0641156 109.1282
2.3506265 -3.7475863 1.0649468 108.05334
2.4314795 -3.7475624 1.0649998 104.4375
2.6733162 -3.7336843 1.0661052 96.473686
2.8940001 -3.7739999 1.066 76
2.9510171 -3.7443967 1.0671041 103.12069
3.0486948 -3.7512033 1.0670006 104.50848
3.1512079 -3.7460003 1.0677741 103.07547
3.2482729 -3.7523093 1.0684912 104.87273
3.3482885 -3.7487113 1.0692693 103.71154
3.4496725 -3.7483454 1.0700543 101.8
3.5495553 -3.7513895 1.0699443 101.44444
3.6460004 -3.7507343 1.0692246 99.591835
3.7484004 -3.7471745 1.0697249 95.849998
3.8486412 -3.753974 1.0706663 95.025642
3.9494877 -3.7553332 1.0716921 95.564102
4.045228 -3.7458866 1.072863 95.636368
4.1500773 -3.7429235 1.073282 99.153847
4.2474008 -3.7433429 1.0736858 100
4.3558335 -3.7498989 1.0435545 186.75912
7.29 -3.7880001 1.068 79
7.3431544 -3.7538462 1.0669231 78.769234
7.4481006 -3.7457006 1.0665001 80.599998
7.5510001 -3.7551429 1.0658573 80
7.6490002 -3.7532854 1.0657145 78.785721
7.7368331 -3.7636669 1.0656667 75.166672
7.8565001 -3.7307501 1.06525 77.25
7.9130001 -3.727 1.0650001 77
8.048667 -3.7046666 1.0636667 77
10.417542 -3.7557395 1.0511401 242.98
16.390499 -3.7455001 1.0734999 154
16.412153 -3.7510004 1.0352309 229.46155
-13.66411 -3.6467776 1.0115556 123.44444
-13.529704 -3.6550002 1.0407059 83.882355
-13.476799 -3.6455002 1.0823001 83.400002
-12.902 -3.6659999 1.069 53
-12.859429 -3.6517146 1.072 53.714287
-12.753 -3.6329999 1.076 55
-12.672501 -3.6440001 1.076 55
-12.568501 -3.6485 1.076 54
-12.446 -3.638 1.072 53
-12.34225 -3.6500001 1.0705 55.25
-12.233334 -3.6486669 1.073 58.666668
-12.153167 -3.6523333 1.0751667 58.333336
-12.0535 -3.6637502 1.076 59
-11.931 -3.6346669 1.0746667 59.666668
-11.837001 -3.6546667 1.0783334 63.333336
-11.791 -3.608 1.081 66
-7.625576 -3.645205 1.049219 219.54794
-6.824429 -3.632143 1.099 77.14286
-6.7476254 -3.646625 1.0981874 77.875
-6.6498008 -3.6524673 1.0966667 78.400002
-6.5522351 -3.6545882 1.0957648 79.882355
-6.4500003 -3.6503334 1.0955001 81.666672
-6.3505387 -3.6542313 1.0955385 82.153847
-6.25279 -3.643158 1.0942632 82.368423
-6.1504502 -3.6514499 1.0940499 84.800003
-6.0520005 -3.6515336 1.0948002 84.333336
-5.9441333 -3.6431336 1.0936668 81.133339
-5.8455501 -3.6411502 1.0921499 81.349998
-5.7465262 -3.642 1.0909473 82.315788
-5.64815 -3.648 1.0897502 83.75
-5.5515904 -3.6521819 1.089591 84.545456
-5.4502282 -3.6594543 1.0890002 84.045456
-5.3480344 -3.6533792 1.0888623 85.896553
-5.2502589 -3.652185 1.0884446 86.333336
-5.1526203 -3.655242 1.0876205 86
-5.0492148 -3.6563575 1.0868928 84.214287
-4.9519601 -3.6545599 1.0863202 87.080002
-4.8493333 -3.6524441 1.0860744 89.518517
-4.7523718 -3.6484289 1.0860858 91.028572
-4.6530557 -3.6552494 1.0869168 90.722221
-4.5503035 -3.6544542 1.0862424 92.515152
-4.4504642 -3.6517508 1.0859647 92.89286
-4.3456669 -3.6519673 1.0855668 94.333336
-4.2523532 -3.6456468 1.0851172 94.852943
-4.148334 -3.6429229 1.0850508 96.051285
-4.0517573 -3.6415946 1.0851077 98.648651
-3.951452 -3.6433806 1.0848328 97.357147
-3.852684 -3.6408684 1.0843943 97.5
-3.7516797 -3.6406035 1.0797734 99.245285
-3.6523752 -3.6472497 1.0851036 100
-3.5480204 -3.6493797 1.0858196 98.32
-3.4492264 -3.6523213 1.0859618 97.943398
-3.3512406 -3.6523101 1.086172 98.931038
-3.2510507 -3.6483562 1.0866443 101.77966
-3.1598222 -3.6389558 1.0870006 104
-3.0543072 -3.6484811 1.0873657 99.942314
-2.9920001 -3.602 1.089 96
-2.7720001 -3.6730001 1.086 83
-0.21737368 -3.6023126 1.0295453 244.18182
-0.14834829 -3.6080809 1.0313729 245.40767
-0.047180157 -3.6171577 1.0338326 238.2764
0.051100619 -3.6258368 1.0358505 233.53658
0.14951836 -3.635144 1.036702 231.05827
0.24890986 -3.6444645 1.0369478 228.58551
0.34919503 -3.6526673 1.0375658 221.48398
0.44879127 -3.6598461 1.0379949 217.40402
0.54859769 -3.6662719 1.0384088 212.93802
0.64943194 -3.6738832 1.0384541 209.05014
0.73992455 -3.6742899 1.0435702 190.10188
0.84736222 -3.6519458 1.0593851 127.49606
0.94909257 -3.6499996 1.0590491 120.93278
1.0501515 -3.6492949 1.0586122 122.10925
1.1492126 -3.6506016 1.0585475 116.76991
1.2464367 -3.648222 1.0530549 116.0635
1.3486488 -3.6494513 1.0596209 113.10811
1.4490377 -3.6501987 1.0599144 114.14151
1.5490197 -3.6497407 1.0602108 112.11539
1.6490302 -3.6493402 1.0604693 110.61
1.7083684 -3.6432106 1.0606315 105.31579
1.8943334 -3.6583335 1.0576667 78
1.9527581 -3.6510694 1.0626897 108.11494
2.0488086 -3.6502695 1.0635735 110.39326
2.1494768 -3.6505706 1.0648725 108.9186
2.2491217 -3.6505244 1.0660983 108.67073
2.3490863 -3.6499381 1.0667169 109.06173
2.4343455 -3.6505089 1.0664915 106.18182
2.6618388 -3.6530321 1.0668712 95
2.946887 -3.6477096 1.0681456 103.32258
3.0469997 -3.6525726 1.0680659 106.52458
3.148577 -3.6494405 1.0689324 102.79661
3.2495265 -3.6493857 1.0697542 103.70175
3.3474317 -3.6531966 1.0705683 102.21569
3.449023 -3.6509321 1.0707041 100.04546
3.5485997 -3.6520667 1.0702887 100.46667
3.6490462 -3.6534185 1.0699998 99.465118
3.7500896 -3.6527336 1.0700665 95.488892
3.8535564 -3.6519334 1.0712885 93.022224
3.9476895 -3.6493554 1.0723996 92.688889
4.0481048 -3.6417365 1.0733948 95.921051
4.1463165 -3.6441057 1.0739738 98.394737
4.2466483 -3.6429458 1.0745407 97.432434
4.3653378 -3.6504824 1.0444961 186.87755
7.3533335 -3.6575341 1.0687335 80.600006
7.4438472 -3.6481543 1.0683846 81.92308
7.5430918 -3.6566367 1.0674546 81.454544
7.6490006 -3.6488004 1.0675 80.200005
