# .PCD v0.7 - Point Cloud Data file format
VERSION 0.7
FIELDS x y z intensity
SIZE 4 4 4 4
TYPE F F F F
COUNT 1 1 1 1
WIDTH 1152
HEIGHT 1
VIEWPOINT 0 0 0 1 0 0 0
POINTS 1152
DATA ascii
-5.4105 -6.5074997 0.61500001 78
-5.3464198 -6.5460849 0.65786016 186.82796
-5.2980003 -6.5965719 0.66700006 201.42857
2.4578571 -6.5322857 0.69785714 69.14286
2.5485001 -6.5435004 0.69770002 68.900002
2.6470833 -6.5539999 0.69700003 70.083336
2.7280002 -6.5557146 0.69742852 85.571434
5.7890005 -6.5893335 0.60633337 98.333336
5.8458691 -6.554348 0.61391306 99.173912
5.9554749 -6.559526 0.63794738 137
6.0484576 -6.5467978 0.67035592 218.77966
6.1040001 -6.5009999 0.68050003 243.25
-7.709733 -6.4100666 0.64493334 141.66667
-7.6615567 -6.4595423 0.65019447 136.06944
-6.6149998 -6.4099998 0.662 100
-6.5396671 -6.4741664 0.65766668 90.5
-6.4489999 -6.4814997 0.66250002 87.5
-5.4409323 -6.4448099 0.65446067 179.64046
-5.3959098 -6.4916363 0.66636366 199.9091
2.3632858 -6.4452853 0.69800007 70.857147
2.451 -6.4485846 0.69758338 70.083336
2.5476923 -6.4486156 0.6966154 72.307693
2.6376667 -6.4643335 0.69655555 84.222221
5.8940001 -6.4949999 0.60699999 98.5
5.9568262 -6.4595218 0.61286956 99.173912
6.0539999 -6.4479995 0.62907696 113.92308
6.150178 -6.4506283 0.66758066 224.16129
6.2048578 -6.4051433 0.67757148 254.00002
-7.8063006 -6.3070002 0.64350003 148
-7.7584577 -6.3552847 0.65254062 144.75676
-6.7273331 -6.3250003 0.65766668 107.33334
-6.6534004 -6.3478003 0.65880001 105.2
-6.5780001 -6.3505001 0.65900004 98
-5.5373759 -6.340486 0.65320003 187.95
-5.4889598 -6.3878398 0.66555989 216.36
2.2557776 -6.3389997 0.69822222 70.777779
2.348067 -6.3537998 0.69733346 70.933334
2.4498463 -6.353385 0.6969232 72.769234
2.5293334 -6.3534446 0.69655561 82.555557
5.993 -6.3990002 0.60100001 97
6.0592632 -6.3634214 0.61063159 98.473686
6.1512313 -6.3494625 0.62353849 114.76923
6.2513089 -6.3537226 0.66373855 230.35385
6.3080769 -6.3079233 0.67330772 249.69232
-7.9040003 -6.2026 0.66839999 155.60001
-7.8572478 -6.2474389 0.64897257 140.90411
-6.8040004 -6.2433333 0.63133335 82
-6.7566671 -6.2655001 0.65983337 106.16667
-6.6543331 -6.2826667 0.6603334 119
-5.6327085 -6.2379117 0.65336704 184.41772
-5.5853009 -6.2874341 0.65749997 196.03334
2.1690001 -6.2212005 0.69800001 71.599998
2.2540002 -6.2494998 0.69757152 72.5
2.3514285 -6.2545719 0.69692874 74.285721
2.4459233 -6.2577691 0.69730771 86.92308
6.161571 -6.2663579 0.60657144 98.928574
6.247417 -6.2486668 0.61766672 108.91667
6.3561292 -6.2550135 0.66114491 229.9855
6.4139333 -6.2088675 0.6712001 253.33334
-7.9487538 -6.1484442 0.649037 136.66667
-7.8870001 -6.1890001 0.616 103
-6.923667 -6.1323333 0.65633333 101.33334
-6.8225002 -6.1684999 0.65849996 100
-6.7749996 -6.1725001 0.65750003 107.5
-5.7300577 -6.1313996 0.6531285 184.77142
-5.6816812 -6.1818047 0.65714628 196.14633
2.0825 -6.1274996 0.69800001 73.25
2.1489375 -6.1451879 0.69793749 73.3125
2.2501767 -6.152647 0.69711775 74.647057
2.3460002 -6.1646667 0.69700003 82.25
2.408 -6.197 0.69700003 92
6.2578335 -6.1780005 0.6043334 98.666672
6.3405008 -6.1532507 0.61266667 106.41667
6.4551492 -6.157382 0.65713239 222.20589
6.5090008 -6.1149092 0.68127275 228.72728
-8.0132856 -6.0786667 0.64723814 126.66667
-7.9963751 -6.0924997 0.66374999 124.375
-7.027 -6.0009999 0.66100001 94
-6.9559999 -6.0534 0.65700001 100
-6.8438339 -6.0640006 0.65899998 99.5
-5.8275557 -6.0309362 0.6525715 178.44446
-5.7783599 -6.0772767 0.65665942 197.38297
1.9833333 -6.0370002 0.69900006 76
2.0505791 -6.0486312 0.69878954 74.894737
2.1531765 -6.0488825 0.69805884 75.470589
2.2425385 -6.0543079 0.69730777 81.769234
2.309 -6.099 0.69700003 86
6.3605003 -6.0874996 0.60250002 100
6.4503746 -6.0488338 0.61829174 109.29167
6.559577 -6.0622187 0.6595 195.10938
6.618134 -6.015902 0.66529995 223.00002
-7.0550003 -5.9433746 0.65987504 87.125
-6.9889998 -5.9390001 0.66299999 85
-5.9256244 -5.9245534 0.65183926 180.75002
-5.877914 -5.9754472 0.65494817 183.96552
2.0785713 -5.9588575 0.699 76.285721
2.1488123 -5.9562502 0.69837499 82.5625
2.2179999 -5.9844999 0.699 99
6.4966669 -5.9800005 0.602 99.666672
6.5688887 -5.9591107 0.60811114 111
6.6635022 -5.9646506 0.65125012 213.48334
6.7232752 -5.9208255 0.66105002 241.325
-7.1246004 -5.8410001 0.66159999 86.800003
-7.0757499 -5.8497496 0.66349995 86.75
-6.020546 -5.8199549 0.65470457 200.02274
-5.9745064 -5.86938 0.65108448 187.07042
2.0856667 -5.8636665 0.69900006 84.666672
2.1164999 -5.8909998 0.699 87.5
6.5910001 -5.9000001 0.60000002 101
6.6786671 -5.8715 0.60616672 113.5
6.7702627 -5.86866 0.65030193 224.28302
6.8290224 -5.8252554 0.65876466 245.52942
-7.3070002 -5.7119999 0.6595 91.5
-7.2680006 -5.7405005 0.66166669 89.166672
-7.1556664 -5.7670002 0.66333336 82.333336
-7.0910001 -5.7690001 0.66500002 89
-6.1168618 -5.7168603 0.65052766 197.63889
-6.0693979 -5.7657442 0.6535641 200.08975
6.7940001 -5.7813334 0.60433334 117.66667
6.8755102 -5.7717237 0.64721274 223.68085
6.9317627 -5.7288976 0.65618652 246.86441
-7.3460002 -5.6375999 0.66180003 82
-7.2723999 -5.6422 0.66280001 82.599998
-7.1880002 -5.6849999 0.66399997 84
-6.2145181 -5.6125922 0.65133327 194.40741
-6.1655741 -5.661541 0.65334833 199.48315
6.9767008 -5.6771502 0.64417505 225.47501
7.0321374 -5.6331072 0.65329236 245.73846
-7.3200002 -5.5679998 0.66500002 79
-6.3081818 -5.5120001 0.64200002 175.9091
-6.2601261 -5.5558653 0.65334374 195.05209
7.0794997 -5.5834732 0.64510524 233.21053
7.1355772 -5.5355272 0.65210801 246.12163
-6.4180002 -5.4184999 0.61150002 93
-6.3523388 -5.4532981 0.65373206 194.13394
7.1852865 -5.4892497 0.64950001 242.82144
7.2424355 -5.4386158 0.65102357 249.02353
-6.5040002 -5.3049998 0.61299998 93
-6.4454517 -5.3520923 0.65474755 189.10811
7.2914438 -5.3918891 0.64605552 245.66667
7.3432193 -5.3433166 0.64906967 249.19768
-6.6279998 -5.2010002 0.61400002 88
-6.5435104 -5.2449489 0.65309155 185.54082
-6.4960775 -5.2934623 0.66499996 209.00002
7.3944712 -5.2953534 0.6504705 252.41176
7.4513741 -5.2452712 0.64991665 252.20834
-6.63938 -5.1424623 0.6542421 181.7579
-6.5910001 -5.1924376 0.6574375 189.6875
7.5484328 -5.1587911 0.6495474 253.71581
7.604764 -5.1069407 0.64876467 253.70589
-6.7304754 -5.038476 0.64765859 199.58536
-6.6884236 -5.0851936 0.66046154 194.03847
7.656353 -5.0576015 0.64922345 254.55295
7.7074709 -5.0082359 0.6515882 253.35294
-6.8267646 -4.9341187 0.64978939 236.21053
-6.779213 -4.9842978 0.65021288 238
7.757709 -4.9593606 0.6498372 255
7.8096118 -4.9090557 0.65138894 255
-6.9256921 -4.8280158 0.64900011 239.75385
-6.8781242 -4.8793755 0.64905375 238.44644
7.8568268 -4.8634863 0.64919728 254.98685
7.9087763 -4.813333 0.64955562 254.92593
-7.0209613 -4.7210398 0.64749998 241.07693
-6.9756517 -4.7723055 0.64877278 241.48486
7.9617777 -4.7635384 0.64997369 254.8158
8.0146923 -4.7141929 0.64930779 255.00002
-7.1173153 -4.6182637 0.65063155 238.8158
-7.0717082 -4.6664305 0.65169615 239.07596
8.0645733 -4.6675591 0.64908808 254.9706
8.1167955 -4.6179705 0.64855886 254.94118
-7.2129998 -4.5134058 0.64900011 240.67567
-7.1656089 -4.5659995 0.64880943 240
8.1658201 -4.5709014 0.64962292 254.68851
8.2193155 -4.5189514 0.65043902 254.46341
-7.3076115 -4.4086113 0.65211117 240.72223
-7.2636595 -4.4570303 0.64944673 241.67021
8.2697105 -4.4664078 0.65042371 246.54237
-7.3593431 -4.3520279 0.64908999 239.02704
8.1974297 -4.3353806 0.66190475 84.380951
8.2055931 -4.347312 0.63946873 81.71875
8.4355993 -4.3077502 0.64450002 212.40001
-7.4517322 -4.2508159 0.64929992 237.25002
0.6517942 -4.2218456 0.64953434 166.43512
8.2341137 -4.2711315 0.65096712 76.196716
8.329668 -4.271667 0.648 61
8.4766598 -4.2721 0.64859992 239.93999
8.5273829 -4.2241421 0.6487143 241.66667
-7.5454082 -4.1473961 0.64937848 237.32433
-0.041999999 -4.1030555 0.64966661 153.77779
0.56662655 -4.1334825 0.64848417 174.35265
0.61344689 -4.1819158 0.64880842 172.44681
8.572875 -4.1803656 0.64839023 246.04877
8.6286888 -4.1271048 0.65012079 244.98276
-7.6386132 -4.0449114 0.64965343 232.41583
-7.5940008 -4.0940003 0.6481111 235.44444
-0.020313727 -4.0803699 0.64901298 180.43791
0.027456934 -4.0321116 0.64956903 190.18965
0.4695507 -4.03126 0.64825517 174.61224
0.51800013 -4.0823245 0.64817542 174.80702
8.6799402 -4.0779705 0.64882356 252.82353
8.7315264 -4.0291405 0.64922804 250.45615
-7.7369614 -3.9356554 0.64867902 230.25926
-7.6927586 -3.9861379 0.6484139 198.13792
0.079607904 -3.979676 0.6495738 197.66478
0.130437 -3.929704 0.64942861 201.39497
0.37363631 -3.9293184 0.64887863 179.34343
0.42065427 -3.9791687 0.65130144 177.2206
8.0865002 -3.9685001 0.69550002 59.5
8.1429996 -3.9330001 0.69800001 57
8.7841215 -3.9800916 0.6479091 246.54546
8.8361244 -3.9303327 0.64933318 242.89474
-7.829195 -3.8321185 0.64702982 239.55223
-7.7858038 -3.8807225 0.64966673 240.25
0.18010595 -3.8809404 0.64980453 204.01675
0.24802004 -3.8310046 0.64938438 198.96552
0.3220112 -3.8749225 0.65246677 185.1044
8.1380005 -3.8397498 0.69424999 58
8.8834562 -3.884999 0.64858341 242.29167
8.9355211 -3.8353078 0.65013844 241.07692
-7.9251084 -3.7283461 0.64958179 238.87273
-7.8786664 -3.7780004 0.65182364 238.45099
8.1324997 -3.7715001 0.69700003 69
8.987052 -3.7864211 0.64463156 238.42105
9.0416698 -3.7371881 0.65137684 239.15942
-8.016201 -3.6312003 0.64933336 205.93333
-7.9731846 -3.6782041 0.65011108 239.96297
9.0909996 -3.6930003 0.65100002 236.5
9.1422367 -3.6463718 0.64857543 239.20547
-8.1363163 -3.5205128 0.64821947 142.92682
-8.0674295 -3.5327618 0.64899999 112.09524
-7.9727397 -3.5433857 0.64861405 59.543861
9.1920004 -3.6000004 0.648 239.28572
9.2478018 -3.5487669 0.64951855 237.58025
-8.2127142 -3.415143 0.65138102 185.90477
-8.178957 -3.4613853 0.64967138 179.01428
-7.9554996 -3.4955001 0.67500001 64
-0.505 -3.431 0.699 90
-0.46900001 -3.4619999 0.699 90
9.3501329 -3.4537868 0.64934993 239.78751
9.4069986 -3.4010005 0.64749998 237.75
-8.3208218 -3.3142145 0.653 173.07144
-8.2600279 -3.362576 0.64858902 176.42465
-8.1803999 -3.3831997 0.653 99
9.4532995 -3.3580954 0.64993656 236.52382
9.5053129 -3.309 0.65050006 235.4375
-8.3658657 -3.2613726 0.65022385 189.05969
9.5578098 -3.2596185 0.64898419 233.68256
9.6104355 -3.2109377 0.65368748 233.9375
-8.5065002 -3.1041667 0.64499998 198.16667
-8.4663229 -3.1376429 0.64894629 169.46429
9.6579638 -3.1660008 0.64976788 233.19644
9.7106514 -3.1164348 0.64882606 231.86957
-8.6040001 -3.006 0.66900003 176
-8.5582066 -3.0552928 0.65153658 186.51219
-0.55733329 -3.0143332 0.69899994 116.22222
9.7645845 -3.0662463 0.64854705 232.75471
9.8190002 -3.0150003 0.6500417 232.91667
-8.6475859 -2.9503813 0.64933336 186.9881
-7.7210002 -2.9613333 0.61199999 59
-0.72162503 -2.9182498 0.69900012 102.08334
-0.64929891 -2.9446595 0.698753 109.45361
-0.5847857 -2.9852145 0.69900006 118.28572
9.8679171 -2.9686596 0.65008509 231.97871
9.9232349 -2.9168334 0.65093338 230.40001
-8.8009996 -2.8039999 0.60699999 119
-8.7482414 -2.8456573 0.64950633 181.8481
-8.690834 -2.8939998 0.63666672 144.16667
-1.01325 -2.8057499 0.699 102
-0.92133331 -2.8013334 0.69900006 102
-0.83697629 -2.8185234 0.69899982 102.61905
-0.75073212 -2.8497682 0.69849974 109.00725
-0.68090624 -2.8782187 0.69831246 132.0625
9.9715405 -2.8721082 0.64908111 229.75676
10.021999 -2.8249998 0.64961284 228.87096
-8.844142 -2.7478447 0.65240842 184.66197
-8.7992496 -2.7912498 0.65524995 216.25
-1.140293 -2.735636 0.69862664 98.494949
-1.0477428 -2.7442787 0.6986925 103.79285
-0.94951892 -2.7495701 0.69856906 104.68987
-0.85100007 -2.7506011 0.69822103 109.82278
-0.77747619 -2.7764766 0.6980952 130.38095
10.073411 -2.7765892 0.64920515 228.30769
10.12965 -2.7234321 0.64983779 226.75676
-8.9152136 -2.662714 0.65685719 186.07144
-8.8893127 -2.6876249 0.63537502 186.125
-7.0072865 -2.6689999 0.65214282 50.928574
-6.9865389 -2.6457951 0.64861542 54.025642
-1.3099999 -2.6015 0.69800001 105
-1.2337018 -2.6378834 0.69693607 98.404251
-1.1495306 -2.6489077 0.69757342 102.19753
-1.0501592 -2.6492825 0.69744635 105.21765
-0.95057791 -2.6497333 0.69738823 111.03889
-0.87403208 -2.6726608 0.69767761 134.79031
6.8650002 -2.6167502 0.69875002 73.5
10.179532 -2.6762333 0.64956677 225.90001
10.229862 -2.6287296 0.64989197 226.56757
-1.3327925 -2.5369148 0.69713402 101.7439
-1.2493067 -2.5499773 0.69634581 102.14773
-1.1502094 -2.5491409 0.6961236 104.07909
-1.0495816 -2.5479541 0.6961627 111.5102
-0.97220248 -2.5683572 0.69689256 135.42857
6.7766666 -2.5436668 0.69833338 81
6.8323998 -2.5462003 0.69859999 70.599998
6.9349995 -2.5219998 0.699 66.75
10.278193 -2.583231 0.6537692 227.80769
10.330857 -2.5341861 0.64697677 228.55814
-8.2139997 -2.4809999 0.625 112
-1.4317945 -2.4348631 0.69626009 100.86301
-1.3497902 -2.4506459 0.69572616 101.2907
-1.2505156 -2.4498565 0.6951434 104.26595
-1.1494807 -2.4481208 0.69498593 111.24757
-1.0696779 -2.462755 0.69596583 144.55933
6.677001 -2.4315 0.69783342 83.333336
6.7568455 -2.4524615 0.69815391 74.230774
6.8517504 -2.4544165 0.69841665 70.833336
6.9155002 -2.4759998 0.69800001 68.5
10.381667 -2.487 0.64976192 227
10.433952 -2.4375 0.64997733 226.70456
-1.601 -2.303 0.69599998 96
-1.5310571 -2.3333287 0.69397163 101.22857
-1.449006 -2.3501737 0.69337249 101.37209
-1.349755 -2.3499744 0.69362241 101.47959
-1.2497773 -2.3501894 0.69404769 105.64455
-1.1652838 -2.3607478 0.69530952 149.07742
6.5711999 -2.3292 0.69760001 92.400002
6.6459999 -2.3406923 0.69769233 78.307693
6.7501998 -2.3546 0.69800001 73.900002
6.829 -2.3629999 0.69774997 74.5
10.482333 -2.3921337 0.64873338 225.46667
10.536718 -2.34166 0.64998114 223.13208
-1.6310002 -2.2285006 0.69303459 100.18965
-1.5487432 -2.2483275 0.69168413 102.20765
-1.4498667 -2.2500093 0.69093657 102.68317
-1.3505861 -2.2488887 0.69126141 104.07907
-1.2599225 -2.2570488 0.6937772 151.25728
6.4715004 -2.21875 0.69774997 92.75
6.5495005 -2.2425001 0.69778574 81.428574
6.6505551 -2.2533333 0.69800001 76.777779
6.7346253 -2.2725 0.698125 75.875
10.590715 -2.2915001 0.65214288 221.85715
10.645765 -2.2408633 0.64990199 222.37256
-1.7290847 -2.1281273 0.69248939 100.87234
-1.648497 -2.1465077 0.69123918 103.18518
-1.5502285 -2.1498818 0.69032788 101.44077
-1.4499861 -2.1498241 0.68978912 103.8964
-1.3542798 -2.1535642 0.69164205 155.51752
-1.2957144 -2.1947145 0.69471431 202.21429
6.3843336 -2.1253335 0.69800007 93.333336
6.4481544 -2.1406155 0.69799995 81.92308
6.5496368 -2.1502728 0.69800001 76.727272
6.6305003 -2.1570001 0.6979 73.599998
6.704 -2.188 0.699 74
10.694286 -2.1949999 0.64585716 220.85715
10.749267 -2.1432884 0.64918643 219.35593
-1.8247892 -2.0273418 0.69210529 102.86842
-1.747034 -2.0494828 0.6907177 105.59444
-1.6512893 -2.0509572 0.69029391 103.29808
-1.5501851 -2.0506954 0.68991089 103.16738
-1.452528 -2.0523431 0.69110948 150.60283
-1.3909143 -2.0910859 0.69411433 211.28572
6.2764997 -2.0184999 0.69850004 95
6.3485007 -2.0419285 0.69835722 83.928574
6.4488573 -2.0502145 0.69892859 77.64286
6.5410004 -2.061182 0.6984545 75.727272
10.848446 -2.0494106 0.65058935 221.50002
-1.9260002 -1.9261751 0.69207495 106.75
-1.8457773 -1.9473585 0.69045204 104.65761
-1.7503084 -1.9511973 0.68993676 104.27039
-1.648975 -1.9518514 0.68990237 103.45267
-1.5505894 -1.9513724 0.69137353 145.2339
-1.4883829 -1.9876382 0.693766 201.70212
6.1905003 -1.931 0.69850004 96
6.2497268 -1.9535453 0.69854546 85.090912
6.3536248 -1.9476252 0.69899994 78.25
6.4485002 -1.9599288 0.69892859 77
10.949088 -1.9548771 0.64942116 219.19298
11.006143 -1.9010001 0.64399999 217.14287
-2.0209413 -1.8266472 0.69197065 105.35294
-1.9471122 -1.8470321 0.69040734 105.56685
-1.8510839 -1.8494413 0.69002777 104.91111
-1.7502776 -1.8492531 0.68934709 104.87755
-1.6497838 -1.8503646 0.69081885 142.24838
-1.5861272 -1.8840319 0.69350797 195.22223
6.0799999 -1.8147501 0.69825006 98.75
6.1529093 -1.8587272 0.69827271 86.727272
6.2475004 -1.85625 0.699 79.25
6.3252001 -1.8642 0.699 78
11.056743 -1.8530395 0.64840013 213.94
11.108858 -1.8040001 0.65485716 210.28572
-6.0341411 -1.7526062 0.64941412 55.828281
-5.9978342 -1.70575 0.64950001 73.083336
-2.121258 -1.7190645 0.69351619 102.96774
-2.0444295 -1.7462769 0.69110268 104.33898
-1.9495596 -1.7500842 0.69013757 105.16299
-1.850616 -1.7502041 0.6904524 106.108
-1.7479212 -1.7493992 0.69132072 134.87582
-1.6830263 -1.7810936 0.69339997 195.70667
5.9844999 -1.7107501 0.69599998 98
6.0462146 -1.7443572 0.69678581 86.214287
6.1464167 -1.7652501 0.69849992 75.583336
6.296 -1.77 0.699 77
6.3354287 -1.7588573 0.699 76.857147
11.155212 -1.7607141 0.64947605 212.90477
11.208213 -1.7115003 0.6509285 211.85715
-6.0231137 -1.6920767 0.65096158 69.46154
-5.9387283 -1.6532888 0.65242368 78.440681
-5.8915296 -1.6132942 0.64311767 73.176468
-2.2204003 -1.6188 0.69440001 101.6
-2.1431615 -1.6439162 0.69234818 104.51498
-2.0494733 -1.6498238 0.69166297 103.9955
-1.9496324 -1.6497842 0.69067723 105.16734
-1.8484858 -1.6485441 0.69153422 133.57433
-1.7791042 -1.6787294 0.69381285 182.4375
5.8866 -1.6184 0.69520003 110.8
5.9485002 -1.6463886 0.69488889 93
6.0543637 -1.6527274 0.69672728 74.181824
6.147934 -1.6534669 0.69866675 74.53334
6.2441669 -1.6615 0.69883335 77.166672
11.261121 -1.6615951 0.64957136 214.33334
11.314715 -1.6115 0.64835709 211.71429
-5.8450098 -1.5633847 0.64962512 72.057693
-5.7916164 -1.510154 0.65215385 64.615387
-2.3197222 -1.5187222 0.69594449 102.55556
-2.2420058 -1.5428807 0.69304687 101.70199
-2.1498425 -1.5501314 0.69210041 104.00906
-2.0492637 -1.5492551 0.69200516 105.07113
-1.9482931 -1.5482206 0.69236553 127.20689
-1.8775985 -1.5759343 0.69381326 180.17757
5.7880001 -1.5165 0.69500005 119
5.8491492 -1.5539999 0.69349998 98.349998
5.9467144 -1.5400717 0.69378585 76.5
6.0504999 -1.556125 0.69606256 74.6875
6.1292858 -1.572143 0.69728577 74.857147
11.362371 -1.5674 0.65074283 211.60001
11.416199 -1.5169998 0.64620006 210.2
-5.739809 -1.4661393 0.64940512 61.835445
-5.6816006 -1.4169252 0.64922494 60.100002
-2.4125001 -1.4161667 0.69733334 100.16667
-2.3429179 -1.4417189 0.69478071 103.15068
-2.2497039 -1.4501173 0.6935963 102.9108
-2.1492677 -1.4498993 0.69288194 105.35146
-2.0485439 -1.44859 0.69347262 120.65371
-1.9757596 -1.4735557 0.69488901 164.30556
5.6905999 -1.4118 0.69580001 119
5.750381 -1.4540001 0.69357157 103.47619
5.8472633 -1.4501579 0.69310522 80.105263
5.9470558 -1.4452221 0.69411117 78.277779
6.0291109 -1.4672222 0.69444448 76.111115
11.471229 -1.4650002 0.65028566 211.08571
11.52 -1.4190001 0.65284622 207.53847
-5.6292057 -1.3663809 0.64933693 64.58696
-5.5644641 -1.3138292 0.64941472 60.07317
-2.5103335 -1.3093333 0.69833338 101.33334
-2.4390399 -1.3390399 0.69620901 103.35484
-2.3496885 -1.3502107 0.69543052 104.67942
-2.2496967 -1.3498008 0.69482762 104.60173
-2.1488829 -1.3492658 0.69469404 114.27715
-2.0741034 -1.3712156 0.69556028 154.41379
5.586 -1.301 0.69800001 123
5.6492186 -1.346 0.69521737 103.56522
5.7474351 -1.3504347 0.69417393 83.08696
5.8496003 -1.3502499 0.69435006 82.800003
5.929667 -1.3516667 0.69306678 80.666672
11.568174 -1.3747648 0.64876467 205.76471
11.625668 -1.3218096 0.6528095 207.71429
-5.5314813 -1.2799641 0.64974993 62.839287
-5.4735408 -1.2305664 0.64840961 61.493973
-2.6150002 -1.2048 0.69819993 98.800003
-2.5364859 -1.2381217 0.69703692 104.03738
-2.4493289 -1.2499641 0.69624043 104.42052
-2.3501718 -1.2506107 0.6962561 106.92478
-2.2489526 -1.2495192 0.69659132 110.74803
-2.1707339 -1.2720919 0.69689876 139.07339
5.5645552 -1.2431666 0.69755554 99.166664
5.6521988 -1.25192 0.69632 86.599998
5.7520452 -1.2481819 0.696091 83.181824
5.8431497 -1.2566 0.69475001 83.450005
5.9000001 -1.281 0.69300002 83
11.674445 -1.2760742 0.64751846 207.74074
11.732073 -1.2219645 0.65039295 204.35715
-5.4213929 -1.1833036 0.65048218 63.660717
-5.3616772 -1.1315451 0.64889914 62.39394
-2.7079999 -1.1143334 0.69866675 97.333336
-2.6343563 -1.1374114 0.69568855 101.31111
-2.5495942 -1.1502105 0.69586605 104.4
-2.4502316 -1.1497595 0.69687265 105.29717
-2.3490989 -1.150296 0.69713646 111.96707
-2.2688096 -1.1715049 0.6975618 126.45715
5.4686003 -1.138 0.69846672 98.333336
5.5528693 -1.1510434 0.69873917 88.217392
5.6478462 -1.1514231 0.69834614 86.730774
5.7459521 -1.1552382 0.69728583 83.428574
5.8094997 -1.189 0.69550002 83
11.781949 -1.1739472 0.65094733 207.47368
11.830537 -1.1271431 0.64824998 206.39287
-5.3136077 -1.0901428 0.64875001 60.07143
-5.2599072 -1.0413367 0.64899999 62.419849
-2.8199999 -1.005 0.699 93
-2.7351384 -1.0344875 0.69492507 102.8375
-2.649924 -1.0498861 0.69503778 104.16305
-2.5489228 -1.0503137 0.6956616 105.5
-2.4491611 -1.0497046 0.69685674 110.73913
-2.3676069 -1.0683759 0.6974954 127.28206
5.4580002 -1.0883334 0.699 88.833336
5.5527496 -1.0551001 0.69900012 87.5
5.6395788 -1.0552632 0.69894749 83.157898
5.7133331 -1.0883334 0.69800007 81.666672
11.882949 -1.0786316 0.65136838 189
-5.2154665 -0.99793339 0.65393335 60.733337
-5.1513882 -0.94607347 0.64930052 61.564415
-2.908 -0.91100001 0.69833338 90
-2.8318417 -0.93277782 0.69468272 100.96826
-2.7488515 -0.94989878 0.69407755 104.6131
-2.6497064 -0.95072675 0.69487637 106.68556
-2.5497258 -0.94989109 0.69591892 109.03318
-2.4678226 -0.96403074 0.69688392 133.45384
5.5900002 -0.98699999 0.699 85
5.6176672 -0.96833336 0.69900006 80
-5.1019473 -0.89563161 0.65568417 66.263161
-5.045795 -0.85191566 0.6485492 61.633801
-4.9949503 -0.80905002 0.64160001 60.049999
-2.9306774 -0.83162886 0.69340354 99.870964
-2.8485985 -0.84959877 0.69377196 104.5679
-2.7497346 -0.8507179 0.69453591 104.44199
-2.6496959 -0.85047203 0.6950205 107.09137
-2.5629864 -0.86145687 0.69631064 138.95364
-4.9445653 -0.76090074 0.64927059 62.364708
-4.884871 -0.71106458 0.64890319 60.064514
-3.0238209 -0.73061538 0.69251293 95.256409
-2.9478393 -0.74804199 0.69239241 101.97902
-2.8501914 -0.75057566 0.69358176 104.40697
-2.7493598 -0.74976039 0.69493759 106.71355
-2.6586487 -0.76068228 0.69596648 135.01987
-2.5977499 -0.79675001 0.69774997 187
-4.8411765 -0.67063135 0.64868051 62.145832
-4.7856684 -0.61990082 0.64837027 63.382717
-3.1219597 -0.62071991 0.69204009 92.439995
-3.0458832 -0.64731014 0.69200075 100.2093
-2.9490254 -0.65010899 0.69246876 104.67949
-2.8496001 -0.65109134 0.69348615 106.51428
-2.7593181 -0.65888971 0.69552559 135.5974
-2.6972499 -0.69549996 0.69850004 190.25
-4.7319078 -0.57366925 0.64904517 62
-4.6739993 -0.52217215 0.64897418 62.758621
-3.22664 -0.51880002 0.69360006 94.879997
-3.1457901 -0.54702532 0.69262248 96.588242
-3.0486767 -0.55056542 0.69273174 105.06896
-2.948868 -0.55064255 0.69300061 105.01324
-2.8565743 -0.55630857 0.69410515 136.5
-2.7936666 -0.59411114 0.69644451 183.33333
-4.6192875 -0.47444847 0.65003449 61.594826
-4.5664744 -0.42702225 0.64914608 62.197079
-3.3183999 -0.41640002 0.69320017 94.733337
-3.2468774 -0.44707021 0.69327235 97.561401
-3.1504109 -0.44999996 0.69326657 100.41935
-3.0506408 -0.44984826 0.69300061 100.63448
-2.953572 -0.45554608 0.69386882 128.46053
-2.8901253 -0.49024996 0.69537503 179.375
4.7287397 -0.41214007 0.64932001 166.53999
-4.5219254 -0.38538763 0.65149993 64.412498
-4.4627852 -0.33558157 0.64771932 61.709183
-3.4133751 -0.31074998 0.69287497 93.875
-3.3486063 -0.34536541 0.69346184 96.884621
-3.2505865 -0.35002476 0.69398361 97.338837
-3.1496274 -0.35023132 0.69392556 99.492538
-3.0523639 -0.35343796 0.69419724 125.53284
-2.9874401 -0.3876 0.69604003 171.03999
4.6615505 -0.34130594 0.64954787 180.50684
4.7088804 -0.39234003 0.65030003 174.98
-4.412787 -0.28885922 0.64964801 64.943665
-4.3539658 -0.23815727 0.64868546 62.218342
-3.5119092 -0.26618183 0.6493637 90
-3.4465756 -0.24901563 0.66892558 84.289719
-3.3518612 -0.24803449 0.69239664 95
-3.2497354 -0.25024793 0.694058 101.59504
-3.1532223 -0.25265193 0.69511092 118.38519
-3.083905 -0.2868571 0.69609523 151.95238
-1.9175295 -0.21470593 0.69601965 75.666672
-1.8461488 -0.22855318 0.69710642 69.553192
-1.7971666 -0.22033332 0.699 74.833336
4.5538783 -0.23888408 0.64965695 161.61353
4.6114411 -0.28800008 0.64998525 181.29411
-4.3050528 -0.1973684 0.65399998 60.315788
-4.2554307 -0.14917985 0.64886868 62.920418
-4.1994381 -0.10300002 0.64337492 60.375
-3.4182413 -0.18082757 0.65237933 78.758621
-3.3462768 -0.15518461 0.66883105 81.775383
-3.2605507 -0.14192405 0.68813908 109.96836
-3.182348 -0.18291304 0.69604343 142.91304
-2.0094149 -0.11020756 0.68483031 78.584908
-1.9638543 -0.14893684 0.69251156 80.264984
-1.8582747 -0.14682104 0.69378096 77.419754
4.4656725 -0.13273069 0.6493125 188.33655
4.5151849 -0.18533656 0.64894229 190.19232
-4.1630902 -0.071039841 0.64885068 63.567162
-3.8295574 -0.0228639 0.65081078 180.26628
-3.7603819 -0.013529408 0.69244111 147.11765
-3.6417494 -0.041421879 0.697891 92.234375
-3.5697942 -0.030176468 0.69611776 81.705879
-3.316 -0.096000001 0.64200002 71.5
-3.249351 -0.063183628 0.66499609 85.050781
-3.1865156 -0.013062498 0.65871876 79.78125
-2.1040909 -0.0049090916 0.67354548 76.090912
-2.0478668 -0.047706466 0.68497509 82.83902
-1.9497759 -0.052646197 0.68940938 83.896187
-1.894774 -0.093903206 0.6943872 85.935478
4.369451 -0.030609537 0.64917135 191.19525
4.417119 -0.080963314 0.65068817 189.84402
-3.8051875 0.0020000001 0.63624996 189.875
-3.7477522 0.047864739 0.65081817 188.53847
-3.658196 0.055280484 0.69431734 124.35365
-3.5500214 0.049065959 0.69774771 94.725281
-3.4685321 0.067510635 0.69770211 91.680847
-3.2084999 0.0060000001 0.64349997 70
-3.1365993 0.034531586 0.65888399 80.915794
-3.0780296 0.083028831 0.66126907 81.71154
-2.2077081 0.056791663 0.67995834 89.416672
-2.1415501 0.048857473 0.6806137 81.954025
-2.0421219 0.049640819 0.68486369 82.610588
-1.9932069 0.0056896554 0.69355178 90.793106
4.3562217 0.045197949 0.64944577 187.65372
4.4068971 0.09538462 0.6496411 178.51282
-3.6464865 0.14056744 0.64844459 197.1851
-3.5713704 0.16937765 0.67299271 160.53333
-3.4842801 0.15188 0.69639999 101.72
-3.0295844 0.13028115 0.6635471 81.130211
-2.9747412 0.17581715 0.66722059 87.849464
-2.3035002 0.19850001 0.667 77.5
-2.2409682 0.16002084 0.6710937 74.28125
-2.1353471 0.12572446 0.65277547 68.959183
-2.0507948 0.15267298 0.66426206 77.167458
-1.9953166 0.19493334 0.68248326 75.916672
4.4560156 0.14149785 0.64969242 179.21863
4.5095687 0.19199999 0.64956862 178.86275
-3.6031339 0.29699999 0.63720006 201.60001
-3.5578132 0.24644387 0.64997864 163.28233
-3.4949505 0.20850003 0.68304998 87.400002
-2.9286189 0.22332197 0.66885382 87
-2.8707769 0.27278504 0.66778129 89.902344
-2.3062422 0.22287883 0.63910604 77.984848
-2.2532394 0.2539306 0.6572215 83.171532
-2.1934547 0.2901364 0.66831827 73.727272
-2.0177538 0.21806338 0.63750744 66.274643
-1.9611264 0.24851659 0.65256643 82.794235
-1.872883 0.26986471 0.64893723 93.390739
4.5584307 0.23767801 0.64895684 177.13943
4.6132083 0.28443408 0.65315098 169.24529
-3.6216848 0.34652156 0.64791596 159.26958
-3.5922649 0.35224003 0.65281582 124.79201
-2.9225135 0.3574743 0.64485908 84.205132
-2.8386559 0.3389115 0.6599859 91.393616
-2.7650044 0.36877602 0.66691846 95.709969
-2.2271521 0.30898741 0.63365829 69.721519
-2.1377792 0.36503327 0.65202302 76.432152
-2.0649374 0.37829167 0.65199995 70.3125
-1.9410632 0.35359988 0.62974882 78.079453
-1.8551714 0.34829226 0.66098696 79.950218
-1.7913853 0.39104593 0.67619544 81.379311
4.6474447 0.34872723 0.68157583 123.25253
-3.7417455 0.45630127 0.65169877 179.05769
-3.6700678 0.41605088 0.66632211 130.18645
-3.5834999 0.40700001 0.64250004 81.5
-3.0518332 0.48789999 0.66093338 93.000008
-2.9086666 0.46866667 0.64566672 73.333336
-2.8358712 0.43535194 0.64238024 96.960892
-2.7426403 0.44137436 0.65754408 95.962585
-2.6634963 0.46340325 0.66755664 90.830193
-2.1156666 0.4145357 0.63473809 68.452385
-2.0337248 0.4545022 0.64980215 76.516373
-1.9869995 0.45717135 0.65422028 81.836731
-1.819797 0.41767567 0.63468277 67.594597
-1.7478013 0.44746229 0.65891093 79.667549
-1.6896751 0.4894217 0.67483521 84.39357
4.6601605 0.43682593 0.68169564 108.46377
4.7136669 0.48785189 0.67696297 103.55556
-3.8366051 0.55902082 0.65006506 183.8488
-3.7869096 0.51340395 0.66313142 182.27272
-3.0209353 0.51589596 0.64920771 94.467529
-2.9507649 0.55873835 0.64616793 97.959732
-2.8512688 0.5485881 0.64463031 94.168076
-2.7382483 0.53600526 0.64219099 89.365974
-2.645699 0.5444321 0.65617067 91.552795
-2.5571573 0.5620234 0.66736645 91.453468
-2.124378 0.57020777 0.62649256 73.753845
-2.0486164 0.52274239 0.6324389 73.772148
-1.9467707 0.54730684 0.65358174 79.532089
-1.8865781 0.58638406 0.66679138 82.635071
-1.7186805 0.51622224 0.63311124 66.4375
-1.6461931 0.54582435 0.65739024 83.047104
-1.5877771 0.58747512 0.67268991 88.666672
4.7434311 0.54462117 0.67971587 110.69474
4.8147783 0.58522224 0.67122221 103
-3.9266763 0.65633303 0.6509155 178.88359
-3.8854072 0.61606199 0.6557256 177.88495
-2.9093103 0.60765517 0.64268959 101.17242
-2.8495994 0.65200007 0.64583272 100.91625
-2.7498155 0.64836836 0.64589489 94.552635
-2.6374128 0.63598472 0.64242876 90.693878
-2.5477278 0.64889425 0.65308934 92.805107
-2.4562709 0.65386194 0.66593468 93.590317
-2.384609 0.69169563 0.6587826 76.782608
-2.2223337 0.67543739 0.62718779 70.802086
-2.1725075 0.63039851 0.62723929 76.08696
-1.9148077 0.61311549 0.63021785 66.448715
-1.8448733 0.64428228 0.64992696 79.35128
-1.7843529 0.68451369 0.6635654 85.818489
-1.6170316 0.61568969 0.631163 68.806198
-1.5445393 0.64353591 0.6557827 85.497536
-1.4857607 0.68540961 0.67058665 92.489449
4.775538 0.61830771 0.68646157 84.307693
4.8497348 0.63877547 0.67806113 97.775505
4.9196672 0.68212497 0.67791665 96.625
-4.3042502 0.79449999 0.68950003 82.5
-4.2600121 0.76557517 0.68521237 80.912498
-4.1497822 0.76091301 0.69593441 88.04348
-4.0609212 0.74068421 0.69576299 106.68421
-3.98 0.69999999 0.69599998 148
-2.8095455 0.70854551 0.63990909 98.181824
-2.7464163 0.74406213 0.64580393 99.956932
-2.6557236 0.75265521 0.64697957 97.448273
-2.5371411 0.73530954 0.64223403 91.608696
-2.4597244 0.75767028 0.64487314 89.22464
-2.3375247 0.75869858 0.66431051 94.041382
-2.2740855 0.75328112 0.63790345 81.210091
-2.1365716 0.78871435 0.68271434 118.85715
-1.8117677 0.71174997 0.62805367 68.946434
-1.7425771 0.74134678 0.64784437 82.588135
-1.6825098 0.78245056 0.66042203 88.639389
-1.516564 0.71424544 0.62974554 66.036362
-1.4426596 0.741422 0.65414703 86.282715
-1.3840706 0.7837376 0.66816825 95.910255
4.9678135 0.72927916 0.68113959 96.186043
5.0228672 0.77923346 0.67923337 94.300003
-4.9180002 0.8775 0.68099999 69.5
-4.8488107 0.87386501 0.68718922 87.75676
-4.4073257 0.8783024 0.62641853 71.488373
-4.3607326 0.85944521 0.6714313 74.630135
-4.2512693 0.84850031 0.69667298 87.442314
-4.1609769 0.8448571 0.69640464 102.85715
-4.0974998 0.80299997 0.69700003 123
-2.6412952 0.83572948 0.64399064 100.94686
-2.5606921 0.85994619 0.64561111 99.50811
-2.4473741 0.83949512 0.63695943 76.36364
-2.34672 0.85500282 0.63695025 84.545692
-2.2451823 0.84508395 0.66620851 98.147697
-2.1892588 0.88446569 0.66574138 92.034485
-1.712755 0.81165302 0.62630618 66.204079
-1.6408424 0.83931643 0.64611745 91.961006
-1.5801134 0.88053107 0.65920085 92.699173
-1.4150666 0.81382245 0.6279332 65.666672
-1.3409487 0.83988142 0.65248603 89.976463
-1.2822444 0.88213599 0.66633356 97.98819
5.0708537 0.82491171 0.68097049 95.264709
5.123735 0.87276483 0.67835289 96.176468
11.845 0.86299998 0.699 101
13.761333 0.88733333 0.61566675 70.333336
13.822 0.88499999 0.64899999 67
13.9575 0.89450002 0.68149996 90
-5.1329999 0.98199999 0.60900003 75
-5.0100002 0.96200001 0.67900002 73
-4.9294372 0.94749993 0.68462503 86.75
-4.8829999 0.91977775 0.68438894 92.055557
-4.4401841 0.95362067 0.68494225 75.413795
-4.3512359 0.94760031 0.69605452 86
-4.2553096 0.94307131 0.69721431 101.38095
-4.1945 0.9095 0.69800001 126.5
-2.5474436 0.91864133 0.64148128 94.584908
-2.4450104 0.95495272 0.63535279 83.865456
-2.3392575 0.93777978 0.64014471 85.855347
-2.2508762 0.95338011 0.64298254 89.755661
-2.1478722 0.9406985 0.66502512 90.289513
-2.0769744 0.98514986 0.67315441 95.805145
-1.6135683 0.91061372 0.62629557 69.477272
-1.5395448 0.93803418 0.64419532 88.421135
-1.4781332 0.97829038 0.65667492 96.919518
-1.314 0.91269237 0.62623066 71.756409
-1.2394096 0.93813211 0.65082872 101.1872
-1.1799872 0.98054415 0.66460752 108.95738
5.1741381 0.9198966 0.67903447 96.310341
5.2313337 0.97109997 0.67460006 97.200005
11.739 0.94499999 0.69800001 95
13.787333 0.91233337 0.61766672 81
13.838091 0.95309097 0.62536365 81.090912
13.922143 0.94700003 0.66085714 85.857147
14.035002 0.96700001 0.68483341 115
-5.9332356 1.0742352 0.68505883 74.294121
-5.8920002 1.097 0.67400002 68
-5.0251245 1.0697083 0.6854167 71.708336
-4.9866252 1.0355625 0.68599999 77.4375
-4.5356407 1.0595896 0.68321759 75.025642
-4.4546304 1.0425961 0.6942454 84.719299
-4.354846 1.0421541 0.69712847 94.256409
-4.2890005 1.0095 0.69850004 119.75
-2.5299113 1.0429661 0.62661797 88.853935
-2.4361947 1.0221084 0.64076596 93.788574
-2.3589337 1.0618453 0.6439268 99.216217
-2.2431068 1.041464 0.63965005 88.199997
-2.1479504 1.0498569 0.64268798 91.004402
-2.0404627 1.0381247 0.66875434 95.377151
-1.9804441 1.0801628 0.67282355 100.2
-1.5128421 1.0111054 0.62457889 69.921051
-1.4380567 1.0360323 0.6418035 89.354683
-1.3760711 1.076154 0.65432692 99.077034
-1.2158592 1.014366 0.62553519 71.112679
-1.1377659 1.0358682 0.64925486 93.044373
-1.0783496 1.0781931 0.662642 102.51296
5.2797651 1.0157647 0.67600006 94.705879
5.3327279 1.0641818 0.67533326 92.121216
11.632667 1.0536666 0.69833338 114
13.89 1.0125 0.61800003 78
13.948267 1.0569334 0.62739998 81.53334
14.041715 1.0515715 0.67100006 87.571434
14.117 1.0469999 0.68633336 104.33334
-5.9075003 1.1 0.68700004 82
-5.9000001 1.1064999 0.69300002 81.5
-5.1270862 1.1673479 0.68708694 72.391304
-5.0747581 1.1328486 0.68503028 72.969696
-4.6304998 1.1650515 0.68086201 73.844826
-4.5611839 1.1404499 0.69043308 81.600006
-4.4566975 1.1442326 0.69611609 92.674416
-4.3905001 1.1155 0.69700003 108.75
-2.3203137 1.116593 0.64013577 99.720337
-2.2555389 1.1586583 0.64265817 97.935486
-2.1504292 1.1512665 0.64117026 87.451851
-2.047966 1.146288 0.6419757 93.191216
-1.9403026 1.1385067 0.66680837 94.156288
-1.8774754 1.1778404 0.66929185 97.223045
-1.6686667 1.1906667 0.69833338 71.333336
-1.4123447 1.1117587 0.62344819 68.724136
-1.3360622 1.1339031 0.63954115 90.599503
-1.2734087 1.1742711 0.65200251 97.312119
-1.1188492 1.1141889 0.62550932 64.660378
-1.0359472 1.1339258 0.64750814 91.023949
-0.97649246 1.1759311 0.66167337 99.561417
5.3826432 1.1102144 0.67535722 91.285721
5.43927 1.1611353 0.67489171 91.837837
11.5625 1.165 0.69700003 97.5
11.6 1.154 0.69599998 92
13.992001 1.1085 0.62400001 80.5
14.051667 1.152611 0.6366111 83.888893
14.124502 1.1458335 0.68533337 88.833336
14.206 1.197 0.69599998 75
-5.7469549 1.2433635 0.68990916 80.681824
-5.6960001 1.299 0.69800001 78
-5.2165837 1.2719166 0.68233335 67.833336
-5.1654863 1.2339715 0.68311423 71.428574
-4.7479773 1.2792068 0.65709186 77.678162
-4.6601396 1.2379847 0.68749231 79.353844
-4.5496831 1.249432 0.6952045 95.136368
-4.4839997 1.216 0.69687498 109.5
-2.2141113 1.2107362 0.63797224 101.52778
-2.1504772 1.2538395 0.64145988 100.49307
-2.0531123 1.2508577 0.64122349 86.201492
-1.9449223 1.2433945 0.63972121 87.266098
-1.8419123 1.2384387 0.66440934 94.194878
-1.7640195 1.2727492 0.6722452 99.871834
-1.6639611 1.2714831 0.69777262 89.140099
-1.5799999 1.2741765 0.69705886 73.470589
-1.3143499 1.2111501 0.62289995 68.950005
-1.2340232 1.2319303 0.6374681 88.643173
-1.1708237 1.2715224 0.65002233 97.591591
-1.0229374 1.2254792 0.62856257 62.75
-0.93435353 1.2323828 0.64629376 90.819397
-0.87484235 1.2747282 0.66034991 99.585594
5.4883752 1.2065001 0.67487502 93
5.5448256 1.2577499 0.67487496 91.474998
11.397 1.293 0.69599998 112
11.441668 1.2496667 0.69766665 109.66667
14.083 1.2045 0.62599999 97.5
14.147589 1.2480588 0.63858825 83.941177
14.232501 1.2593333 0.68316668 78.333336
-5.630908 1.3466363 0.68339401 77.848488
-5.5712004 1.3833334 0.67743343 76.133339
-5.4596672 1.381 0.65933335 66.666672
-5.3223753 1.37625 0.67862505 68
-5.2557063 1.3389022 0.68304884 69.414635
-4.8222151 1.3777145 0.67746419 71.535721
-4.7645845 1.3329146 0.67191476 76.609756
-4.6522555 1.348093 0.6938374 91.441856
-4.5794001 1.3230668 0.69666672 114.46667
-2.1079311 1.3065172 0.63379306 93.482758
-2.0480165 1.3467784 0.63949335 97.410667
-1.9608845 1.3577627 0.64033079 86.309357
-1.8419955 1.3394573 0.63738865 85.4916
-1.740365 1.3393321 0.65986484 101.01717
-1.6579792 1.3597853 0.67635226 109.451
-1.5684452 1.3656449 0.69782245 90.963631
-1.4792142 1.3719286 0.69621432 71.857147
-1.2108572 1.3137144 0.62228572 67.571434
-1.1318996 1.3284223 0.63546491 87.470764
-1.0692456 1.3694097 0.64728838 95.821983
-0.92927283 1.3339319 0.63165921 63.045456
-0.83306289 1.3307275 0.64491093 95.277878
-0.77325231 1.3730981 0.65875721 99.937408
5.5956669 1.306 0.67466664 91.333336
5.648025 1.3518291 0.67480469 89.463409
11.36025 1.34325 0.69599998 118.25
14.195499 1.304 0.61199999 77
14.250633 1.344421 0.64215791 79.789474
14.320499 1.358 0.6886667 78.166672
-5.5352998 1.4247667 0.67369998 80.666672
-5.4756999 1.4446999 0.66985005 71.5
-5.3491311 1.4368261 0.68134785 66.826088
-4.917315 1.4802632 0.67636842 70.842102
-4.8591561 1.4427191 0.68409377 77.734375
-4.7489738 1.4497106 0.69344753 89.236839
-4.677917 1.4272501 0.69491667 109.75
-2.0107143 1.4032857 0.62942857 81.714287
-1.94478 1.4397436 0.63745952 98.239433
-1.866904 1.4671755 0.63911861 90.960449
-1.7391098 1.4360945 0.63602805 85.673561
-1.6415393 1.4418348 0.65690178 103.41553
-1.5555496 1.4582757 0.67445445 115.30443
-1.4610081 1.4682119 0.69765872 91.203926
-1.3775293 1.4799119 0.69647056 78.235298
-1.0286567 1.4257774 0.63336056 96.189537
-0.96727479 1.4670792 0.64549494 98.872826
-0.83760798 1.439941 0.63490206 62.882355
-0.73169619 1.4294606 0.64341068 87.737785
-0.67194051 1.4713894 0.65707254 92.69368
5.6975002 1.401 0.67750001 93
5.7528515 1.4496173 0.67229766 91.297867
5.8049998 1.4974999 0.66525 83.25
11.2505 1.4595 0.6965 117.25
11.321 1.4 0.69599998 114
14.350389 1.4426086 0.63921744 76.95652
14.4265 1.4765 0.68700004 73.5
-5.4246278 1.5366749 0.67704648 76.209305
-5.3835001 1.5780834 0.67291665 79.083336
-5.0089002 1.5878001 0.67400008 70.700005
-4.9552388 1.5465072 0.68234324 77.776115
-4.8513346 1.5483334 0.69327289 88
-4.7768121 1.5266875 0.69581258 110.125
-1.913 1.508 0.63 76
-1.8390164 1.5326254 0.63587296 99.632103
-1.7676561 1.5673575 0.63784862 95.836136
-1.636089 1.5327086 0.63483673 85.770775
-1.5467218 1.5464526 0.65162718 103.07493
-1.4541179 1.5554221 0.6719135 134.04796
-1.3616508 1.5504506 0.69632137 90.640625
-1.289 1.524 0.68800002 70
-0.92674875 1.5242884 0.63133144 83.910431
-0.86510938 1.5650367 0.64375389 92.272728
-0.74828577 1.5474763 0.63865089 65.936508
-0.6305908 1.5285375 0.64197576 82.558868
-0.57107806 1.5702466 0.65613836 88.30822
5.8556771 1.5452647 0.66744113 87.588234
5.9075718 1.5931429 0.66385716 85.14286
11.152801 1.5500001 0.69440001 121.8
11.203 1.5 0.69400001 117
14.455954 1.5413333 0.64414287 77.333336
14.52 1.5888333 0.65816665 77
-5.5029998 1.61 0.67000002 65
-5.428 1.6118001 0.6814 64.400002
-5.337801 1.6255001 0.67605001 76.950005
-5.2683249 1.6661079 0.67683786 78.054054
-5.1211672 1.6803334 0.67466676 74.333336
-5.0620155 1.6568071 0.65604365 77.035088
-4.950871 1.6507095 0.69412917 89.645157
-4.8732858 1.6259288 0.69478571 105.57143
-1.732335 1.6265988 0.63417131 97.54393
-1.6631826 1.6646451 0.63598323 93.055176
-1.5338448 1.6310445 0.63352138 84.505989
-1.4482317 1.6487782 0.64773226 122.62069
-1.3554068 1.6524669 0.66007441 122.27262
-1.2976817 1.694818 0.65999997 109.77273
-0.82530606 1.6225331 0.62856162 82.164513
-0.76279253 1.6626697 0.64149332 91.183418
-0.64786452 1.6498644 0.6385594 65.288139
-0.52999574 1.628139 0.64078808 81.971382
-0.47039959 1.6698694 0.65609461 94.123055
5.9585156 1.6406128 0.66780639 88.6129
6.0098467 1.6905385 0.66884613 106.23077
11.064249 1.6727501 0.69449997 116
11.115499 1.609 0.69400001 120
14.560388 1.6397778 0.65133333 76.944443
14.614429 1.6900001 0.64442861 76.714287
-5.1470637 1.7537814 0.67981249 76.5
-5.0479288 1.7476431 0.69389302 87.285721
-4.9704442 1.7308334 0.69566673 109
-1.6241328 1.7208493 0.63235241 92.976875
-1.5600468 1.7605233 0.63549578 118.85046
-1.4325396 1.7302684 0.63235056 85.481102
-1.3569485 1.7575598 0.63704354 90.060791
-1.2534262 1.7484953 0.65375304 110.7234
-1.1921999 1.7943423 0.65595293 112.37647
-0.72372246 1.7211189 0.62586796 81.716324
-0.66033584 1.7602216 0.6396268 89.901085
-0.54948002 1.7483 0.63768005 64.760002
-0.42994103 1.7277473 0.63961023 81.910393
-0.3691034 1.7681632 0.65457082 88.88726
3.1670001 1.745 0.699 102
6.0527992 1.7398001 0.66717136 92.400002
6.1022005 1.7869999 0.66460007 92.400002
10.951501 1.7650001 0.69187504 126.25
11.0155 1.7075 0.6925 113
14.666649 1.7377061 0.64958817 76.294121
14.709201 1.7814 0.6494 76.400002
-10.721 1.8839444 0.65077776 131.05556
-10.695 1.8903334 0.64433336 109
-5.3050003 1.8956668 0.68800008 84
-5.2437243 1.8545344 0.67817241 74.172417
-5.1500325 1.8467001 0.6922335 84.233337
-5.0701542 1.8328462 0.69500011 99.769234
-1.5196463 1.8149819 0.63061941 92.433624
-1.4540997 1.8561443 0.63316745 93.696381
-1.3317059 1.8299999 0.63024813 81.365547
-1.2537848 1.8541667 0.63578755 88.261734
-1.1489387 1.8464415 0.65193671 102.904
-1.0879748 1.8895633 0.65395796 103.26051
-0.62244821 1.8200561 0.62274754 80.271744
-0.55839986 1.8575717 0.63763309 87.7108
-0.45292857 1.8569822 0.63992858 67.89286
-0.32856795 1.8262221 0.6382069 80.225662
-0.2674624 1.8668928 0.65343052 82.602333
6.1544051 1.8365939 0.66462499 91.625
6.2104998 1.889375 0.66312498 90.875
10.866801 1.8657999 0.69580001 131.40001
10.91325 1.8434999 0.68924999 111.75
14.761942 1.8300591 0.65035295 73.705879
14.825701 1.8788 0.64840001 73.599998
-10.703334 1.9100001 0.64900005 149
-10.662914 1.9551245 0.64883924 167.07144
-5.3568306 1.9629252 0.65600008 74.5
-5.2535148 1.9459395 0.69009101 83.757576
-5.1690001 1.9395882 0.6954118 103.82353
-1.4125453 1.9092909 0.62745452 89.127274
-1.3494731 1.9506121 0.63085699 91.027473
-1.2371229 1.9335347 0.62817144 80.165779
-1.1494539 1.950874 0.63236743 88.88797
-1.0467327 1.9432069 0.65006018 92.501472
-0.98630488 1.9836248 0.65263218 92.08046
-0.5214029 1.9204425 0.6194281 78.910072
-0.45661622 1.9552934 0.63556403 87.161034
-0.36314279 1.9634862 0.64194274 69.599998
-0.22766775 1.9255316 0.63613534 75.977936
-0.16475193 1.9650419 0.6523959 82.625351
2.9549999 1.9614999 0.699 99
6.2608929 1.9391073 0.66414285 90.178574
6.3100004 1.9866667 0.66250002 90.666672
10.766857 1.9664285 0.69314295 136.42857
10.825 1.92975 0.68800002 96
14.868925 1.9321539 0.65723079 75
14.924572 1.9598573 0.63557142 70.14286
15.031 1.9613335 0.6056667 67.333336
15.113 1.985 0.60000002 78
-10.614783 2.0263045 0.64386958 130.8261
-10.5905 2.0427999 0.65850002 122.6
-5.4353328 2.0605111 0.67428887 71.711113
-5.3564243 2.0401516 0.68600005 80.030304
-5.2639446 2.0379446 0.69338894 99.055557
-1.3070999 2.0060003 0.62280005 80.700005
-1.247788 2.0431283 0.62868977 91.295525
-1.1527787 2.0525239 0.62590337 81.151726
-1.0496528 2.0467043 0.62985253 87.49543
-0.94595212 2.0408845 0.64832062 85.129768
-0.88161057 2.0801203 0.64994001 84.962967
-0.42181593 2.0192592 0.61650229 74.587067
-0.35476702 2.053005 0.63320678 79.841583
-0.26727158 2.0713453 0.64250624 71.469139
-0.12598081 2.0242865 0.63413817 75.891609
-0.062066089 2.0621562 0.6510427 81.595146
2.858 2.0639999 0.699 96
6.3574996 2.0328751 0.65991676 89.75
6.4132996 2.0838001 0.65280002 86.700005
10.665 2.082 0.69800001 164
10.718333 2.0433333 0.6901111 127.77778
14.965715 2.0214288 0.66071433 73.928574
15.029112 2.0763333 0.65477782 72.666664
15.124667 2.0506668 0.61266673 65.666672
15.218 2.076 0.60500002 83
-11.340334 2.1613336 0.671 111.33334
-10.51 2.1630001 0.62 66
-10.437649 2.166811 0.65394598 146.97298
-10.387401 2.1924 0.6494 129
-5.5289068 2.1582501 0.67331243 71.1875
-5.4581943 2.1398387 0.68435472 77.80645
-5.361783 2.1429131 0.69208699 102.30435
-1.2130001 2.1010001 0.62150002 73.5
-1.1430078 2.1360917 0.62733591 91.132843
-1.0616479 2.1625307 0.62721807 83.463684
-0.94844967 2.1443458 0.62835354 86.257317
-0.84409249 2.1399045 0.64547569 86.046127
-0.77790022 2.1772544 0.64835495 87.043831
-0.31917277 2.1175902 0.61398566 73.201439
-0.25345895 2.1505983 0.63083303 78.761963
-0.17096204 2.17576 0.64345556 71.329117
-0.025910847 2.1226306 0.62957573 72.18795
0.03550186 2.156328 0.64851111 77.684059
0.103 2.198 0.68599999 83
6.4631362 2.1326821 0.65677273 87.5
6.5142727 2.179091 0.65372729 87.545456
10.568666 2.1783333 0.68733335 112.5
10.638 2.1273334 0.69133341 122.33334
10.763 2.122 0.68599999 80
15.07343 2.1228573 0.65842861 72.714287
15.136546 2.1621819 0.65609092 72
15.266001 2.1220002 0.60666668 88.666672
15.3295 2.1795001 0.61249995 82.5
-10.345466 2.2449834 0.64881027 156.5
-10.293445 2.2885556 0.64666671 145
-5.6272302 2.2688074 0.67153835 71.538467
-5.5600867 2.2352567 0.68022871 76.342857
-5.4538212 2.243536 0.69128573 106.53572
-1.0362195 2.2295005 0.62576687 87.538101
-0.96267653 2.2637551 0.62608296 83.647064
-0.84551978 2.2415764 0.6265527 87.61647
-0.74536508 2.2409954 0.64187729 91.499054
-0.6749317 2.2739511 0.6470713 88.294113
-0.21795917 2.2152553 0.61183697 73.704079
-0.15263902 2.2475171 0.62884051 79.020134
-0.077227287 2.2759907 0.63980919 75.018181
0.075529985 2.2205708 0.62590843 71.353317
0.14172412 2.2577381 0.64601326 77.382584
2.6473336 2.2896669 0.69833338 97.333336
6.5669999 2.2304764 0.65538096 88.333336
6.6197505 2.2794168 0.64966667 87.916672
10.486 2.2804999 0.6965 158.5
10.5392 2.2393 0.68990004 122.8
15.168286 2.2138572 0.66828573 74.428574
15.235818 2.2598183 0.65890914 70.181824
15.372252 2.25 0.62275004 75.75
15.441 2.27 0.60949999 113.5
-10.245109 2.3470783 0.650172 161.03125
-10.1944 2.3936 0.63440001 161
-5.748179 2.3783803 0.64403999 73.779999
-5.6597414 2.339226 0.67735475 74.193542
-5.5547304 2.3437309 0.68776941 98.115387
-5.4949999 2.309 0.69300002 123
-0.92813599 2.3227215 0.62343526 87.435371
-0.86193728 2.3614967 0.62365443 82.919289
-0.74272805 2.3374975 0.62456369 86.606232
-0.64421195 2.3426712 0.6385166 88.565842
-0.5684588 2.3697891 0.64412695 88.354927
-0.11467606 2.3121691 0.6093381 68.816902
-0.048905142 2.3459928 0.62695146 75.676521
0.010398441 2.3858984 0.63955468 77.820313
0.17817432 2.3191795 0.619385 67.138466
0.24332748 2.3549678 0.64455158 75.314186
0.35730106 2.3903596 0.61500967 96.223305
2.5696001 2.3670001 0.69780004 96.599998
2.6279998 2.3074999 0.69800001 94
6.6705499 2.3317001 0.65539998 87.450005
6.7219162 2.3824167 0.6520834 86.5
10.395 2.3840001 0.6925 135
10.446125 2.3387499 0.69199997 127.5
10.525999 2.3234999 0.685 80.5
15.279499 2.31475 0.671 70.75
15.337456 2.3628182 0.6673637 70.727272
15.46475 2.3427501 0.62974995 75.5
15.538 2.3642499 0.61549997 116.5
-10.146378 2.4383776 0.65001881 155.71698
