# .PCD v0.7 - Point Cloud Data file format
VERSION 0.7
FIELDS x y z intensity
SIZE 4 4 4 4
TYPE F F F F
COUNT 1 1 1 1
WIDTH 1198
HEIGHT 1
VIEWPOINT 0 0 0 1 0 0 0
POINTS 1198
DATA ascii
3.6530001 41.955002 -0.32950002 239
3.734 41.966499 -0.36600003 238.75
3.8410001 41.981499 -0.34299999 235.5
3.9400001 41.994667 -0.33066666 233.33334
3.9760001 42 -0.38999999 228
4.0570002 42.012001 -0.3475 227
4.1652498 42.028 -0.35124999 230.5
14.072 -49.174 -0.23 114
14.1665 -49.1535 -0.2475 105
14.261 -49.133999 -0.26300001 98
14.348333 -49.125999 -0.23733334 104.33334
14.454 -49.106998 -0.243 101
14.177 -48.389999 -0.28600001 95
14.057 -47.536999 -0.245 132
14.117 -47.5205 -0.23300001 214.5
16.036999 -47.266998 -0.255 227.75
16.1635 -47.25 -0.24950001 226
16.259001 -47.237499 -0.23549999 222
16.35475 -47.22625 -0.25174999 220.25
16.451 -47.216 -0.26899999 217
16.514 -47.207001 -0.252 223
16.577999 -47.199001 -0.2375 221
16.642 -47.191502 -0.2455 216.5
16.727333 -47.181667 -0.25833333 210.33334
16.877003 -47.163998 -0.24833333 182.66667
14.933 -41.511002 -0.25299999 77
14.953 -41.403 -0.23550001 105.5
15.03525 -41.387001 -0.25024998 129.25
15.136333 -41.368336 -0.25800002 158.66667
15.2565 -41.3475 -0.23774999 167.5
15.368 -41.32925 -0.26225001 166
-4.3340001 -31.274 -0.29100001 154
-4.2507501 -31.247 -0.25300002 145
-4.1413999 -31.208601 -0.2414 161.40001
-4.085 -31.202999 -0.2595 153
-4.2389998 -31.160999 -0.271 100
-4.164 -31.198999 -0.294 140
-4.0170002 -31.190334 -0.25566667 143.33334
-3.9431667 -31.185501 -0.25416669 147.83334
-3.8558331 -31.174168 -0.24800001 148
-3.7415004 -31.161835 -0.24766669 160.33334
-3.6490002 -31.152399 -0.26000002 156.8
-3.5446 -31.139801 -0.25260001 168
-3.4602499 -31.131001 -0.25125 171.75
1.7658001 -31.170801 -0.2366 126.2
1.846 -31.1635 -0.26050001 98
1.9933333 -31.160336 -0.24199998 196
2.05 -31.130501 -0.25400001 220.33334
2.1525714 -31.109001 -0.24900001 251.85715
-4.3774996 -31.011 -0.2465 114.5
2.2405999 -31.096003 -0.2494 255
2.3465717 -31.080143 -0.24957144 255.00002
2.4528751 -31.063875 -0.252875 255
2.5583999 -31.0466 -0.2494 255
2.646143 -31.033573 -0.24928571 255.00002
2.7290001 -31.021332 -0.24166666 255
-4.3970003 -30.869499 -0.25849998 101
-4.4110003 -30.691 -0.24033335 118.66667
-4.4303336 -30.553335 -0.25333333 138.66667
1.914 -30.528999 -0.264 137
-4.4510002 -30.427334 -0.252 139.33334
1.681 -30.493 -0.26100001 69
-4.473 -30.310501 -0.243 109
1.633 -30.303501 -0.23100001 82.5
1.63 -30.249001 -0.287 54
-4.4899998 -30.160999 -0.26499999 94
-4.5024996 -29.987999 -0.25300002 114
-4.5213337 -29.857 -0.24200001 116.66667
1.571 -29.859501 -0.22149999 116.5
-4.5430002 -29.748001 -0.229 122.5
-4.5633335 -29.630001 -0.25666666 109
1.5160002 -29.515333 -0.26300001 97.333336
-4.5799999 -29.494499 -0.28150001 117.5
-4.5970001 -29.359501 -0.25049999 101
-4.6120005 -29.215332 -0.24000001 106.66667
-4.6300001 -29.0935 -0.23199999 112
-4.6490002 -28.975002 -0.25400001 119
-4.6675 -28.858501 -0.24849999 120.5
-4.6844997 -28.735001 -0.248 101
-4.6999998 -28.601 -0.20100001 130
-4.6989999 -28.597 -0.237 109
-4.7150002 -28.4715 -0.222 104
-4.7314997 -28.3505 -0.24699999 100.5
-4.7509999 -28.247 -0.273 103
-4.7685003 -28.135 -0.27899998 101.5
-4.7965002 -27.875 -0.22049999 107
-4.8093338 -27.743002 -0.24366668 100.33334
-4.8280001 -27.6425 -0.26999998 119.5
-4.8439999 -27.529999 -0.27850002 120
-4.6329999 -27.542999 -0.214 93
-4.862 -27.433001 -0.23100001 119
-4.652 -27.450001 -0.22 86
-4.8774996 -27.318001 -0.2265 123
-4.6650004 -27.317001 -0.26166666 84.333336
-4.8924999 -27.202999 -0.25800002 97
-4.8920002 -27.200001 -0.206 106
-4.6680002 -27.129 -0.26699999 72
-4.9060001 -27.084667 -0.25100002 110.66667
-4.9216666 -26.977333 -0.25266665 124.33334
-4.7020001 -26.923 -0.212 106
-4.9380007 -26.874668 -0.25966668 127.66667
-4.7210002 -26.83 -0.22 113
-4.954 -26.771999 -0.23100001 134
-4.737 -26.728001 -0.259 113
-4.9703336 -26.673 -0.23700002 115.33334
-4.7579999 -26.646999 -0.27200001 89
-4.9829998 -26.5555 -0.26100001 109
-4.9943333 -26.434002 -0.25066668 121.33334
-5.0063334 -26.315001 -0.257 126.66667
-1.4090002 -26.307333 -0.24600002 96.333336
-5.0209999 -26.211498 -0.2475 126
-1.3720001 -26.230667 -0.23500001 92.333336
-5.0349998 -26.108999 -0.23800001 133.66667
-1.3356667 -26.167334 -0.26200002 106
-1.3 -26.109335 -0.25466669 99.333336
-5.0495 -26.0075 -0.2265 121
-1.2465 -26.035 -0.243 91
-5.0469999 -25.995001 -0.27700001 138
-1.177 -25.947498 -0.26100001 94.666672
-5.0603333 -25.888668 -0.2536667 127.33334
-1.1260002 -25.886333 -0.25333333 88.333336
-1.0740001 -25.831999 -0.24349999 130.33334
-5.0799999 -25.774 -0.2475 121.75
-1.023 -25.780334 -0.26266667 199
-0.97299993 -25.733334 -0.25450003 209.66667
-5.107667 -25.617336 -0.26499999 120.33334
-5.0875001 -25.684502 -0.28 99
-0.92300004 -25.691 -0.24000001 217.66667
1.2706667 -25.361334 -0.25233334 58.666668
-5.1919999 -25.214001 -0.26199999 81
0.15366668 -25.269445 -0.24433334 254.44444
0.21699999 -25.254333 -0.25633335 182.33334
0.94666672 -25.233889 -0.25033334 255
1.0413333 -25.221664 -0.24755555 255
1.1356666 -25.208109 -0.25388888 255
-5.1849999 -25.178501 -0.26199999 100
0.87874997 -25.10725 -0.25075001 89
1.1990001 -25.199001 -0.23766667 255
1.2306666 -25.195 -0.24166666 255
2.24225 -25.127249 -0.24949999 153.75
-5.1925001 -25.056 -0.252 107
2.2690001 -25.072002 -0.23966667 255
2.3479171 -25.062666 -0.25383332 255
2.4545002 -25.049101 -0.24929999 255
2.5517001 -25.0361 -0.2494 255
2.6457779 -25.02389 -0.25466669 255
2.7365999 -25.0119 -0.2476 255
2.802 -25.003002 -0.25300002 255
-5.2056665 -24.961332 -0.24199998 97.666672
0.26371428 -24.954859 -0.25271431 109.85715
0.34 -24.945335 -0.24655554 118.66666
0.44807693 -24.931538 -0.25176924 159.15385
0.56154549 -24.917545 -0.25181821 194.36365
0.65199995 -24.906223 -0.24911113 217.88889
2.8652999 -24.994699 -0.24949999 255
2.9589999 -24.982334 -0.25455555 255
3.0533333 -24.970112 -0.24544446 255
3.1473331 -24.958 -0.25322223 255
3.2413335 -24.944998 -0.24877779 255
3.3495386 -24.930695 -0.25269231 255.00002
3.4604001 -24.916 -0.2509 255
3.539 -24.906002 -0.25150001 255
0.74599999 -24.895401 -0.2518 236.90001
0.82400006 -24.886002 -0.25400001 247.33334
3.586 -24.9 -0.26133335 255
3.6455002 -24.891701 -0.24550001 255
3.7458 -24.8785 -0.25359997 255
3.8558462 -24.863617 -0.24815384 255.00002
3.9619997 -24.848667 -0.24455555 255
4.0588007 -24.834799 -0.25620002 255
4.1496673 -24.821669 -0.2491111 255
4.2436666 -24.808668 -0.249 255
4.3408003 -24.794901 -0.2545 255
4.4472504 -24.780003 -0.25041667 255
4.5574446 -24.766109 -0.24944444 255
4.6545 -24.752302 -0.25430003 255
4.7453332 -24.738335 -0.25033331 214.22223
4.836 -24.706331 -0.24799998 219.66667
4.8990002 -24.697334 -0.24966666 217.33334
4.9645 -24.688499 -0.25540003 214
5.0556664 -24.675776 -0.2498889 219.44444
5.1466002 -24.6633 -0.24590002 212
5.2475004 -24.649998 -0.25460002 208.3
5.3386664 -24.637222 -0.2458889 209.88889
5.4489994 -24.622082 -0.252 205.08334
5.5593333 -24.606668 -0.252 205.77779
5.7210002 -24.604 -0.26300001 175.33334
5.6530004 -24.591223 -0.25055555 222.44444
5.7690001 -24.598 -0.23983334 255
5.8512001 -24.5875 -0.25029999 255
5.9370999 -24.565901 -0.25 212.2
6.0369 -24.559 -0.2509 221.8
6.1530771 -24.549616 -0.2529231 255.00002
6.2603331 -24.53422 -0.24544446 255
6.316 -24.495335 -0.25800002 96
6.2775002 -24.220751 -0.249 92.5
6.3396664 -24.210001 -0.24622223 94.555557
6.4023337 -24.201336 -0.26166666 114
6.4621005 -24.1933 -0.24800001 118.8
6.5626998 -24.1798 -0.25370002 157.5
6.6538897 -24.166889 -0.24655554 183.66667
6.748333 -24.153336 -0.24722221 214.88889
6.8457999 -24.139198 -0.25209999 235.60001
0.068999998 -19.253401 -0.249 79.800003
-0.63800001 -19.093 -0.25266668 198.16667
-0.57499999 -19.002625 -0.25050002 245.125
0.044 -19.084999 -0.255 71.5
-0.52699995 -18.99625 -0.25275001 248.25
-0.45499995 -18.98575 -0.2524375 248.125
-0.35841179 -18.972469 -0.25135294 249.17647
-0.25085714 -18.956139 -0.24980955 236.57143
-0.14425001 -18.938875 -0.24656251 139.4375
-0.043619048 -18.921812 -0.25500003 102.71429
0.02 -18.93025 -0.2475 67.25
5.5300002 -18.529249 -0.24075001 87
5.5135002 -18.3895 -0.24600001 83
5.4980001 -18.255249 -0.248 71.5
5.4952497 -18.16275 -0.25299999 96.75
5.5548224 -18.155943 -0.24894117 108.52941
5.653059 -18.145529 -0.24929412 142
5.7496881 -18.136497 -0.2500625 180.75
5.84725 -18.127127 -0.252875 212.625
5.9444995 -18.117188 -0.24725001 225.125
6.0423126 -18.107187 -0.25 238.4375
6.2880001 -14.49 -0.219 51
6.3140001 -14.484333 -0.213 51
7.2756 -14.4318 -0.235 51.600002
7.3800001 -14.403 -0.29699999 52
7.4049997 -14.408 -0.29000002 54.5
7.2816668 -14.389668 -0.23866665 55.333336
7.3372107 -14.390578 -0.24594736 53.63158
7.401 -14.4 -0.25999999 52
8.2650003 -14.302401 -0.24660002 52.200001
8.3086662 -14.302668 -0.23400001 52.666668
7.098 -14.249 -0.257 50
7.9633994 -14.289802 -0.21600001 51.200001
8.0499287 -14.282499 -0.23707144 54.785717
8.1476851 -14.290001 -0.25010526 54.789474
8.2392302 -14.294847 -0.25492311 51.769234
8.3035002 -14.2945 -0.28549999 51
7.0612502 -14.1185 -0.26874998 50.5
7.0726247 -14.069876 -0.27475002 51
7.1059999 -14.043 -0.292 51
6.085 -13.976 -0.255 51
6.1570001 -13.949 -0.213 51
12.27743 -13.944143 -0.28342861 51.000004
6.0469999 -13.84 -0.21900001 50.666668
6.1069999 -13.881 -0.20900001 51
7.066 -13.749 -0.229 51
6.7989998 -13.692 -0.241 50
7.559 -13.6575 -0.25099999 50
7.6745 -13.6615 -0.255 50.5
7.7195001 -13.662001 -0.28400001 50.5
7.0570002 -13.563 -0.27250001 50
-2.7256 -13.423401 -0.2138 65.200005
-2.691 -13.41 -0.211 74
7.0279999 -13.4658 -0.24700001 50
11.782 -13.4565 -0.29500002 51
-2.6889999 -13.4 -0.228 61
-0.74049997 -13.352751 -0.25616664 96.5
5.7880001 -13.320601 -0.27340001 55.600002
5.8537774 -13.311778 -0.23388889 54.444447
5.915 -13.309 -0.20999999 57
7.0283222 -13.334821 -0.24996431 51.57143
11.828 -13.356 -0.29100001 51
-0.759 -13.233667 -0.245 83.666672
5.7870002 -13.289 -0.29699999 65
5.8608823 -13.277352 -0.27364707 69.058823
5.9519343 -13.260935 -0.25033331 73.866669
6.0471997 -13.230567 -0.24956667 81.933334
6.1427784 -13.215722 -0.23083332 82
6.2463341 -13.211584 -0.23299998 62.833336
6.3214998 -13.2045 -0.20649999 50.5
7.0787773 -13.295111 -0.25311112 51.666668
7.1072502 -13.29 -0.26350001 50.75
-0.77100003 -13.155666 -0.24349999 73.666672
6.086 -13.199 -0.289 89
6.1499095 -13.191545 -0.27890912 80.818184
6.2361007 -13.1924 -0.25200003 58.400002
6.4830003 -13.142 -0.24499999 56
6.5045004 -13.13925 -0.23724999 56.75
7.0721245 -13.130249 -0.25012499 53.25
-1.4090002 -13.052334 -0.245 252.66667
-1.3518109 -13.045218 -0.25018919 246.67567
-1.2497838 -13.032622 -0.2511622 223.51352
-1.1496669 -13.019861 -0.25116664 187.66667
-1.0521176 -13.00706 -0.25279409 149.73529
-0.78299999 -13.076834 -0.24800003 67
7.0695834 -13.054999 -0.25183335 50.916668
7.1363997 -13.0398 -0.2375 50.299999
7.2096667 -13.019 -0.27166671 50.333336
-1.0080001 -13 -0.21799999 88.333336
-0.95060539 -12.993 -0.25086847 110.81579
-0.85094446 -12.980413 -0.25044444 92.222221
-0.79450005 -12.997334 -0.24716668 66.166672
4.6948333 -12.505 -0.25733334 86
4.7090001 -12.591 -0.25400001 94.833336
4.6825004 -12.425166 -0.24283336 73.833336
4.6695004 -12.342834 -0.24466667 66.333336
4.6700001 -12.251667 -0.24966666 85.277779
4.7438331 -12.236722 -0.25272223 96.916664
4.8454056 -12.222948 -0.24900001 116.13514
4.9463072 -12.209332 -0.25088885 154
5.0050006 -12.201 -0.25250003 178.16667
5.0560002 -12.193399 -0.25036669 194.3
5.1495004 -12.179997 -0.25202781 225.5
5.2349596 -12.168792 -0.24979167 236.79167
-2.358 -11.903 -0.244 53
-2.4170001 -11.812 -0.20999999 50
-2.3499999 -11.863 -0.2455 53.75
-2.2939999 -11.816 -0.26199999 52
-2.4172499 -11.73925 -0.22 52.25
-2.3642223 -11.754334 -0.24466665 54
-2.29 -11.716 -0.26499999 52
-2.108 -11.72 -0.28299999 55
-2.0840001 -11.76 -0.294 57
-2.4106667 -11.657001 -0.23833334 53
-2.3502002 -11.650199 -0.25780001 54
-2.2302499 -11.64225 -0.27350003 53.5
-2.1330001 -11.636667 -0.28500003 54.333336
-2.0904999 -11.665501 -0.29699999 58.5
-2.3518333 -11.555834 -0.26233333 53.666668
-2.2399998 -11.537 -0.27775002 54
-2.145143 -11.535001 -0.29128572 58.714287
-2.0999999 -11.592 -0.30000001 60
-2.3445001 -11.45875 -0.26999998 54
-2.2502 -11.4364 -0.28320003 54.400002
-2.1845 -11.443251 -0.29300001 56.75
-2.329 -11.34525 -0.28 54.5
-2.2482858 -11.35 -0.29142857 55.57143
-2.3146667 -11.241 -0.29000002 56.333336
-2.2733333 -11.254001 -0.29500002 56.666668
-2.289 -11.188 -0.29899999 60
-1.7 -8.1529999 -0.26699999 74
6.7781668 -8.0921669 -0.25691667 54.666668
7.4910002 -8.0019999 -0.20100001 50
7.5300002 -8.0096664 -0.21133333 50.333336
8.0080004 -7.8330002 -0.208 50
9.7750006 -7.8582001 -0.25580001 51
6.5889997 -7.7284999 -0.2095 50
6.6113334 -7.7683334 -0.22633335 50
5.4083338 -7.5080004 -0.23699999 51
-1.5486667 -7.4243331 -0.28133333 84.666672
5.3765712 -7.4407148 -0.2197143 50.857143
5.4035001 -7.4905 -0.21450001 50.5
7.052 -7.4759998 -0.222 50
-1.5562619 -7.3445225 -0.24852383 107
5.3395629 -7.3398337 -0.24722919 51.583336
-1.5732729 -7.2472973 -0.25070459 91.272728
5.3565011 -7.2540512 -0.25571668 51.050003
5.4060998 -7.2289996 -0.22229998 51
6.5454998 -7.2553329 -0.23 50
-1.602 -7.1009989 -0.24900001 71.545456
-1.5914999 -7.1562619 -0.25047615 74.285713
5.3732176 -7.1443696 -0.26230437 51
5.4108005 -7.1238008 -0.21866666 51.000004
5.5209999 -7.1219997 -0.211 54.5
6.4879999 -7.1360002 -0.21080001 50
6.5357223 -7.1425552 -0.22927777 50
-1.828939 -7.045321 -0.24943079 124.49231
-1.7514914 -7.0366564 -0.25062725 93.863632
-1.6471292 -7.0305934 -0.25118181 86.522728
5.3877001 -7.0869002 -0.28460002 51.100002
5.4503512 -7.0522952 -0.25402355 57.023529
5.5385776 -7.0142503 -0.23757695 66.134621
5.6183333 -7.0048342 -0.20933335 63.333336
6.5233335 -7.092 -0.20633334 50
-1.8433946 -6.9390011 -0.24848485 82.878792
5.566462 -6.9914622 -0.27792311 64.96154
5.6514611 -6.9803843 -0.25446156 63.384617
5.7493992 -6.9620438 -0.25049999 61.157143
5.8128471 -6.9466157 -0.26569232 54.23077
5.9855909 -6.9332271 -0.24709091 51.045456
6.0148335 -6.9252501 -0.26199999 50.333336
6.5668178 -6.9235454 -0.24381818 50.454548
-1.8578085 -6.8357344 -0.25141174 80.411766
6.5613403 -6.8403602 -0.25100005 58.579998
6.6502771 -6.8209996 -0.25044832 60.448277
6.7054996 -6.8190002 -0.259 53.5
-1.8767726 -6.7395916 -0.24995454 61.136364
6.6880002 -6.7940001 -0.24699999 50
-1.8884683 -6.6512151 -0.25159574 70.659569
3.8895807 -6.6466513 -0.2515116 116.06977
-1.9045293 -6.5355291 -0.2499706 74.617645
-1.895455 -6.580955 -0.2493182 56
3.8760998 -6.5486984 -0.25042504 104.95
-1.9141999 -6.4486675 -0.25123334 64.800003
3.8628376 -6.4513707 -0.25076741 83.790695
-1.9302918 -6.3414712 -0.24959724 72.527779
3.8497112 -6.3543324 -0.24786668 72.400002
-1.942266 -6.2395101 -0.25065306 63.163265
3.8659186 -6.2834535 -0.25141102 86.260277
3.948575 -6.2685642 -0.25045374 88.268517
4.0493574 -6.2539067 -0.2503868 101.96227
4.1523166 -6.2393441 -0.25054204 138.8598
4.250989 -6.2252526 -0.25044209 173.9579
4.3510957 -6.2116656 -0.25068578 206.54286
4.4203224 -6.2021608 -0.24893548 221.12903
-1.9530159 -6.1506548 -0.24963938 60.72131
4.4479551 -6.1989999 -0.25040913 193.54546
-1.9661024 -6.0557981 -0.25044116 63.882355
-1.9791132 -5.9535756 -0.24991548 58.718307
6.118 -5.9169998 -0.29699999 53
-2.0060005 -5.8071537 -0.25100002 79.230774
-1.9926705 -5.8524756 -0.25018421 61.907894
5.6859999 -5.849 -0.294 53
5.7384996 -5.8660002 -0.28575 53.25
5.8990002 -5.8579998 -0.29899999 50
6.2246666 -5.8143339 -0.22766666 51.333336
7.9770002 -5.8070002 -0.28200001 51
8.0266666 -5.8146667 -0.27166671 50.666668
8.1504002 -5.8351998 -0.27940002 50
8.2704 -5.8608003 -0.28500003 50.400002
8.3272219 -5.8293328 -0.28822222 51
9.7909994 -5.8166671 -0.21033335 84.333336
9.8491249 -5.805625 -0.22437498 88.125
-2.0078931 -5.7426238 -0.25096971 68.136368
5.9789996 -5.7346001 -0.26519999 52.400002
6.0050001 -5.743 -0.205 50
6.2505007 -5.796834 -0.22383332 50.5
7.9980001 -5.7989998 -0.287 50
8.0200005 -5.7989998 -0.27700001 50
8.3705006 -5.7616668 -0.296 50.666668
9.88375 -5.7989998 -0.22350001 94.75
9.9247789 -5.769278 -0.22216666 134.05556
-2.0198381 -5.6510749 -0.25018752 64.025002
5.9619999 -5.6869998 -0.29899999 55
8.2388411 -5.6214795 -0.24052 55.32
8.3255005 -5.684 -0.287 50
-2.0321012 -5.5546451 -0.24998738 60.455696
5.598 -5.5029998 -0.27900001 50
5.6269999 -5.5040002 -0.26499999 50
5.9759731 -5.5337634 -0.25692108 53.315788
6.0497408 -5.5283327 -0.24259259 51.333332
6.1524453 -5.5572495 -0.24797222 51.305557
6.2380457 -5.5639548 -0.22663635 51.136364
6.3109999 -5.5669999 -0.204 51
8.2443533 -5.5673528 -0.24847059 54.764706
-2.045959 -5.4548759 -0.2508229 59.333336
5.1919999 -5.4219999 -0.296 51
5.2049999 -5.4219999 -0.29800001 52
5.3604999 -5.4040003 -0.223 51
5.5586672 -5.4650002 -0.271 50
5.6488123 -5.4561257 -0.24890625 51.34375
5.7263074 -5.4507694 -0.21107692 50.92308
5.9910002 -5.4940004 -0.215 50.666668
6.0280004 -5.4911432 -0.21128573 51.000004
6.1847501 -5.4315 -0.29624999 51
6.2397504 -5.4466791 -0.26603574 50.89286
6.3673339 -5.4676003 -0.21879999 50.533337
7.3835721 -5.4082861 -0.24957144 51.428574
7.4520836 -5.4045005 -0.23566666 50.5
7.5537276 -5.4085455 -0.22636364 50
7.6413078 -5.4096928 -0.22869231 50
7.7059999 -5.4120002 -0.255 51
9.2075005 -5.4724998 -0.2155 61.5
-2.0621171 -5.3432417 -0.2507143 65.45536
5.1921434 -5.3464289 -0.29485714 52.000004
5.2537098 -5.3330979 -0.26841933 51.903225
5.3521633 -5.3464594 -0.23137838 52.054054
5.4411054 -5.3484735 -0.23626316 50.36842
5.5646667 -5.3796668 -0.2536667 51
5.6543846 -5.3560767 -0.22915386 51.615387
5.7089996 -5.3592005 -0.20640002 51.799999
6.1765003 -5.3859997 -0.29650003 51
6.2294998 -5.3780003 -0.24349999 50
6.3633137 -5.3315315 -0.2259375 51.40625
6.4296107 -5.3138337 -0.23738888 52.444447
7.2650003 -5.3236666 -0.28200004 50
7.3785996 -5.381 -0.21140002 51.400002
7.443572 -5.3804293 -0.21242858 50.14286
7.5436668 -5.3930006 -0.23033333 50
7.661334 -5.3871336 -0.22333336 50.133335
7.7363997 -5.3638005 -0.23033333 50.26667
-2.0734565 -5.2445564 -0.25029999 60.371429
5.27075 -5.2969999 -0.26800001 50.75
5.3511996 -5.2845592 -0.22731999 50.959999
5.4604697 -5.2559404 -0.22976469 51.705883
5.5173335 -5.2671666 -0.24583332 51.666668
6.3885002 -5.2950001 -0.20649999 52.5
6.4136672 -5.2956672 -0.20833334 52
7.1678004 -5.2688003 -0.29000002 51
7.2319999 -5.2849998 -0.29800001 51
-2.0853078 -5.152226 -0.25009641 60.587719
5.4480009 -5.1476088 -0.25430438 54.04348
5.5 -5.1939998 -0.234 52
5.7638335 -5.1040001 -0.21349999 50.333336
7.6222 -5.1245999 -0.2388 53.600002
8.1429996 -5.1999998 -0.28799999 50
-7.7350006 -5.0081997 -0.2342 146.2
-2.1026254 -5.029501 -0.25055361 60.39286
-2.0950234 -5.0742226 -0.25042224 59.333336
5.4591517 -5.042757 -0.26478791 56.696972
5.5481005 -5.0283008 -0.28510001 52.700001
5.6535115 -5.0607448 -0.26876745 50.488373
5.7343664 -5.0647998 -0.23076668 50.200001
5.8655 -5.0124998 -0.211 50
5.9366002 -5.0360003 -0.22760001 50.200001
7.586 -5.0749998 -0.243 51
7.619 -5.098 -0.25600001 51
-7.73875 -4.9437499 -0.240375 134.625
-7.6798573 -4.9383922 -0.24310714 141.32144
-2.1127746 -4.950985 -0.25054789 59.556519
5.4923339 -4.9983335 -0.29266667 56.666668
5.506 -4.994 -0.29899999 54
5.6732502 -4.9165001 -0.25025001 51
5.8770003 -4.9507151 -0.2267143 50.857143
5.9185724 -4.9442859 -0.25242859 52.857143
6.8000002 -4.9829998 -0.204 51
7.0879998 -4.9780002 -0.22400001 50
7.1493855 -4.9552307 -0.21976922 50
7.6699996 -4.9318333 -0.21708333 50.166668
7.7237501 -4.9659996 -0.23825 50
-7.7070003 -4.8943338 -0.21433334 87.666672
-7.6922226 -4.8941112 -0.2428889 108.77778
-2.1272185 -4.8494754 -0.25045153 64.233871
5.5904999 -4.8199997 -0.257 50
5.6312776 -4.8601117 -0.25650001 50.166668
5.8688006 -4.8828001 -0.23840001 52.400002
5.9060001 -4.8635001 -0.22400001 52
6.9714999 -4.8245001 -0.289 50.5
7.5809999 -4.8280001 -0.27000001 50
7.6522641 -4.8493237 -0.25402942 50
7.7286663 -4.889667 -0.21233332 50
7.9759998 -4.802 -0.259 50
8.0059996 -4.8060002 -0.26199999 50
-2.1397781 -4.7516942 -0.25071293 66.546295
5.888 -4.7379999 -0.206 51
6.9990001 -4.7849998 -0.29300001 51
7.046 -4.7140002 -0.27000001 52.428574
7.6611667 -4.7828884 -0.26572224 50
7.7510004 -4.7825556 -0.27772221 50
7.8458462 -4.7866154 -0.27653846 50
7.9245 -4.7943749 -0.278375 50
-2.1521089 -4.6532726 -0.25030932 63.640289
5.3821249 -4.6139994 -0.278 53.875
5.4243851 -4.6250772 -0.23353848 50.92308
6.9965 -4.6805 -0.2405 52
7.0298576 -4.6851425 -0.26714289 53.714287
7.4940004 -4.6323338 -0.21166667 50
7.5190001 -4.6105003 -0.21849999 50
-2.2479999 -4.5009999 -0.22888891 88.555557
-2.1635027 -4.5511594 -0.25027996 71.528
5.3685708 -4.5455098 -0.27006125 55.489796
5.4054999 -4.5843334 -0.24183333 53.666668
6.3439999 -4.5029998 -0.28999999 55
6.880909 -4.5337276 -0.24054544 51.363636
7.0079999 -4.5250001 -0.219 50
7.4686007 -4.5760002 -0.20939998 50
7.5205832 -4.5468335 -0.21183334 50.5
-2.2314701 -4.4769607 -0.25103921 88.313728
-2.1737568 -4.4496336 -0.25015977 91.243057
5.3600516 -4.4538622 -0.26413789 56.206898
6.3342805 -4.4457197 -0.28471994 58.639999
6.8534999 -4.4864998 -0.2825 51.5
7.3499999 -4.4120002 -0.25099999 50
7.4617333 -4.4571338 -0.22166668 50.466671
7.52 -4.4510002 -0.20100001 54
-2.2105694 -4.3356323 -0.25078458 90.784615
-2.1956594 -4.3544989 -0.25119999 87.839996
5.2714996 -4.32725 -0.26262498 52.5
5.3470998 -4.3706999 -0.2378 53.100002
6.348032 -4.360188 -0.28587502 58.34375
-2.2137868 -4.241076 -0.24926718 79.175575
5.175241 -4.2304139 -0.28506902 59.275864
5.252615 -4.2354865 -0.25217143 60.728573
5.3375015 -4.2311344 -0.22051668 64.166672
5.4282141 -4.207643 -0.20864289 68.357147
-2.2121754 -4.1344151 -0.25194439 80.972221
5.1949997 -4.197 -0.29799998 69.5
5.2610626 -4.1885624 -0.28553125 69.0625
5.3542466 -4.1790161 -0.26995379 68.446152
5.4517884 -4.1709003 -0.25568888 68.099998
5.5436177 -4.1653204 -0.24545678 62.469135
5.6212354 -4.1734123 -0.22435296 50.941177
6.276834 -4.1319284 -0.24561903 51.523811
6.3145456 -4.1408181 -0.24718183 51.545456
-2.2258251 -4.053411 -0.25085181 72.44973
6.2810359 -4.0843215 -0.26617858 51.07143
6.3416443 -4.0794668 -0.2606889 50.066669
-2.2421851 -3.9522262 -0.25025639 60.671795
-2.2553856 -3.8507154 -0.25068367 61.433674
-2.2705808 -3.7460511 -0.25041521 62.741524
-2.2825391 -3.6461518 -0.25056523 62.032608
-2.3041055 -3.5404217 -0.24931577 70.5
-2.2926936 -3.556004 -0.2495077 60.341969
-2.3077996 -3.4503806 -0.25032604 61.995651
-2.3 -3.5000002 -0.26042858 59.07143
-2.3203797 -3.3536198 -0.24996823 61.154766
-2.3344476 -3.2503738 -0.25067562 63.170567
-8.1437864 -3.1144998 -0.24642856 126.07143
-2.3470633 -3.1499183 -0.25033456 61.63118
5.2270002 -3.102 -0.25299999 51
-8.158989 -3.053329 -0.25187343 157.40506
-2.359482 -3.0527399 -0.25049505 61.615635
5.075294 -3.0062938 -0.28200001 50
5.136364 -3.0128636 -0.25240913 50
5.2474771 -3.0423095 -0.22597612 50.119049
5.3212004 -3.0630002 -0.20480001 50.200001
-8.1728811 -2.9862943 -0.25470591 162.94118
-2.3726208 -2.9527705 -0.25066459 62.23642
4.8649998 -2.9119999 -0.296 50
5.0769286 -2.9378932 -0.28432143 52.357143
5.1430287 -2.9827018 -0.25864181 50.149254
5.2190003 -2.9884002 -0.2378 50
-8.1815443 -2.8433259 -0.24904345 133.78261
-7.4530001 -2.8559999 -0.227 76
-2.3858135 -2.853631 -0.25040057 62.441521
4.4781599 -2.8289199 -0.28952 61.52
4.5476837 -2.8217671 -0.2545 62.316669
4.6253996 -2.8100402 -0.21544002 63.32
4.7909999 -2.8840001 -0.289 50
4.8249998 -2.8953333 -0.29050002 50.166668
5.080915 -2.8612149 -0.26306546 54.626167
5.1259565 -2.8366661 -0.22181158 53.2029
5.8459339 -2.8093331 -0.26693332 54.600002
-8.208065 -2.7351286 -0.24522579 140.64516
-8.1949472 -2.7824209 -0.24773686 145.8421
-2.4052563 -2.739471 -0.25018275 66.517769
-2.3969464 -2.7614117 -0.25058851 62.401043
4.3887501 -2.7147498 -0.29749998 52.75
4.4540005 -2.7638333 -0.29288891 52.444447
4.5528526 -2.7724664 -0.26261336 51.986668
4.6281033 -2.7767589 -0.22210345 52.931034
4.9873996 -2.7369001 -0.2723 51.600002
5.0371614 -2.7641611 -0.26212898 51.064514
5.121572 -2.7915716 -0.22628571 51.000004
5.8558602 -2.7821856 -0.24569765 53.488373
6.6726871 -2.7067499 -0.23293748 53.9375
6.7030001 -2.7049999 -0.264 53
-8.2085838 -2.68225 -0.26775002 120.66667
-7.4836664 -2.6249998 -0.25388891 83.777779
-2.4138491 -2.6484194 -0.25003105 62.971672
4.3491249 -2.6460001 -0.2951875 52.8125
4.9499149 -2.6484675 -0.24735451 53.212765
5.0019999 -2.687 -0.20100001 52
5.7859235 -2.6140771 -0.28476927 53.92308
5.8384285 -2.6562707 -0.26188892 51.761909
6.6862001 -2.6914001 -0.21440001 54
6.7078576 -2.6875715 -0.23214287 54.000004
-7.5360003 -2.5295331 -0.23966666 89.53334
-7.4826007 -2.5846002 -0.252 94.599998
-2.4262347 -2.5505383 -0.25057468 63.064674
4.2864547 -2.5342727 -0.29872727 55
4.3254786 -2.5550003 -0.29295653 52.652176
4.929317 -2.5489736 -0.24739072 53.092716
5.178 -2.5091999 -0.21820001 50
5.2125721 -2.5215716 -0.20771429 50.14286
5.7835884 -2.5477617 -0.27855563 54.349209
5.8271799 -2.5524819 -0.22925302 53.530117
-7.5336933 -2.4754617 -0.23746152 76.230774
-2.4392614 -2.4506333 -0.25052786 63.196129
4.2806087 -2.4443913 -0.2956087 54.434784
4.3196158 -2.4286923 -0.28246155 52.69231
4.9468675 -2.463213 -0.24912713 52.982658
5.0194106 -2.4382823 -0.25492311 52.641026
5.1632352 -2.4285588 -0.2663824 50.617649
5.2461739 -2.4562175 -0.22795649 51.434784
5.7822871 -2.4511967 -0.2792272 54.121212
5.8335347 -2.44801 -0.23153535 53.313129
5.9336672 -2.4236667 -0.22433333 51.333336
6.0687499 -2.40925 -0.2105 52.75
-7.3744378 -2.3551247 -0.25318748 110.5625
-7.0716667 -2.3133335 -0.29500002 75.666672
-2.4528456 -2.3520336 -0.25047645 63.366291
4.274435 -2.3477178 -0.29312819 54.692307
4.3344035 -2.3505974 -0.27443278 51.955223
4.9589229 -2.334923 -0.29638466 51.23077
5.0532217 -2.357667 -0.29300001 50.333332
5.1184998 -2.3677502 -0.29250002 50.75
5.2364998 -2.3824999 -0.20300001 51
5.7898331 -2.3943334 -0.2931667 54
5.8356776 -2.3894515 -0.26961288 53.903225
-7.4040003 -2.2117498 -0.2665 133.5
-7.3807607 -2.2404349 -0.24647823 120.19566
-7.059 -2.296 -0.30000001 72
-2.4675126 -2.2499666 -0.25052407 64.427711
4.2707629 -2.2523947 -0.29307896 54.605263
4.342648 -2.2481828 -0.2752957 51.788731
4.9494743 -2.2563682 -0.29763159 51.736843
5.0233998 -2.2437999 -0.2974 52
8.265667 -2.2843332 -0.29500002 50
8.302 -2.2909999 -0.29300001 50
8.6306667 -2.2810001 -0.20833334 51
-8.3327007 -2.168 -0.24749999 86.200005
-8.2702055 -2.139051 -0.24694876 100.05128
-7.4151998 -2.1546004 -0.25381541 118.23077
-7.3854375 -2.1180625 -0.2525 87
-6.7265387 -2.1376922 -0.24861541 79.46154
-6.6764283 -2.1518571 -0.24792859 82.285721
-2.479883 -2.1496363 -0.2504783 63.386955
4.2667747 -2.1525249 -0.29442498 54.725002
4.3479719 -2.1511881 -0.2778261 52.173916
4.9517498 -2.1772501 -0.29962498 52
5.0450001 -2.1700001 -0.30000001 53
7.6632371 -2.1275527 -0.22689474 50.13158
7.9299998 -2.1129999 -0.20100001 51
-8.286684 -2.0527034 -0.25117815 185.59406
-8.1949997 -2.096 -0.29499999 74
-7.4242678 -2.0575001 -0.25038466 110.63462
-7.3900008 -2.077857 -0.24485716 88.14286
-2.5023754 -2.0403054 -0.25045833 66.944443
-2.4905605 -2.055078 -0.25048423 63.283787
4.2694445 -2.0507503 -0.29513893 54.583332
4.3313003 -2.0764501 -0.28375 52.400002
4.9239998 -2.0085001 -0.28149998 51
7.5767498 -2.0675001 -0.27125001 50
7.6458893 -2.0762222 -0.25222221 50.111111
7.7069998 -2.0955 -0.23199999 51
7.9190001 -2.0999999 -0.20299999 51
-8.3069153 -1.947011 -0.25146431 214.28572
-7.6485 -1.997 -0.2825 72.25
-7.5518575 -1.9907144 -0.27471429 68.571434
-7.4351029 -1.9861722 -0.25434485 104.10345
-7.3858333 -1.9816668 -0.259 73.666672
-6.9529767 -1.9139091 -0.25177276 78.545456
-2.5077767 -1.9375737 -0.24961054 65.255264
-2.4982045 -1.985842 -0.25189757 62.716866
4.2802811 -1.9556252 -0.29559377 54.75
4.3047004 -1.932 -0.2897 52.600002
4.8766203 -1.9411387 -0.25317082 52.943039
4.9049997 -1.971 -0.287 52
5.1588488 -1.9451817 -0.27966663 51.060608
5.2434731 -1.9414444 -0.2329722 51
5.3066001 -1.9504002 -0.20460001 50.600002
-8.319541 -1.851512 -0.25009751 244.4756
-2.518508 -1.8508701 -0.25048715 64.607208
4.2913337 -1.8690001 -0.29773337 55.666668
4.3137388 -1.8476523 -0.2938261 53.956524
4.8653564 -1.8689559 -0.23763391 52.812504
4.9084997 -1.878 -0.27499998 50.5
5.7418489 -1.8585095 -0.26901883 53.226418
-8.3336754 -1.750042 -0.2501789 253.25264
-5.6300745 -1.7570758 -0.25120762 88.150948
-5.5994997 -1.756 -0.22850001 76
-2.5273585 -1.7495409 -0.25042412 81.598938
4.3354383 -1.7519373 -0.2957187 54.96875
4.8169999 -1.798 -0.204 51
5.7519546 -1.71825 -0.23525 52.136364
-8.3476362 -1.6494335 -0.25053009 254.67468
-2.5355897 -1.6648773 -0.24946494 119.24675
4.3795924 -1.6629629 -0.2954815 61.51852
4.4513192 -1.632713 -0.26932785 67.852455
4.5438576 -1.629038 -0.2252572 67.809525
4.6111255 -1.608125 -0.20649999 67.375
5.770443 -1.6842781 -0.25341666 52.694447
5.8221817 -1.6640911 -0.24743183 52.068184
-8.3618574 -1.5493983 -0.25030112 255
-4.3235488 -1.5490777 -0.25015685 80.92157
-4.296 -1.5545 -0.243 81.5
-2.536 -1.5974001 -0.28879997 79
4.4724336 -1.5898001 -0.28876665 67.600006
4.5548868 -1.5784531 -0.26829243 66.622643
4.6486182 -1.5659568 -0.25047478 64.669067
4.7249732 -1.5645788 -0.22765793 55.263157
4.983953 -1.5510151 -0.24963276 55.3125
5.008625 -1.5239999 -0.21950002 50
-8.3761101 -1.4489396 -0.25007227 254.9518
-2.3657005 -1.4428211 -0.25042009 179.10063
4.9908004 -1.498 -0.28959998 50.600002
5.0139999 -1.49625 -0.28437501 50
-8.3898716 -1.3536586 -0.25031763 255
-2.3787973 -1.3503278 -0.25055006 126.39925
-8.4063683 -1.2421786 -0.25024655 255
-8.3987494 -1.295 -0.24969999 255
-2.401 -1.202 -0.29100001 93.5
-2.3931181 -1.2492939 -0.25028309 92.941177
-8.4192133 -1.1524403 -0.25088099 255
-3.0133862 -1.1616528 -0.25024489 98.551018
-2.9473486 -1.1533771 -0.25029796 93.629143
-2.8493493 -1.141867 -0.25056353 84.049728
-2.7483871 -1.1295837 -0.2505106 75.5
-2.6498938 -1.1164579 -0.25035414 71.958336
-2.5698698 -1.1050695 -0.24790832 71.67939
-2.4080448 -1.1478034 -0.25119236 94.345276
-2.399955 -1.1960001 -0.22104546 93.181824
-8.4340734 -1.0525274 -0.25056988 255
-2.5179791 -1.0974693 -0.25411215 70.795914
-2.4399173 -1.0899699 -0.25035381 82.150772
3.8117144 -1.0057857 -0.26500002 69.285721
-8.4495707 -0.95204753 -0.2512143 255
3.7938776 -0.96741188 -0.24979608 163.40291
3.8009503 -0.99799997 -0.25055 154.35001
-8.4648094 -0.85138905 -0.25019994 255.00002
-8.4791899 -0.75089312 -0.25110716 255
3.082051 -0.73303366 -0.25038749 204.22
-8.4930658 -0.650042 -0.25062102 255.00002
3.0718954 -0.64936948 -0.25038999 120.1157
-8.5069399 -0.54841673 -0.25089285 255
3.0593183 -0.55110455 -0.25046325 165.14894
-8.5201588 -0.45233342 -0.25088105 255
3.0455782 -0.45011342 -0.25056213 255
-8.5335312 -0.35111699 -0.25081909 254.99998
3.0326223 -0.34958947 -0.25036782 254.99231
-8.54739 -0.24950008 -0.25068289 254.99998
3.0203321 -0.25032812 -0.25044191 255
-8.5604153 -0.1529524 -0.24977385 255
3.0078971 -0.1506881 -0.25035885 255
-8.5737019 -0.050709657 -0.25027952 254.93549
2.9935908 -0.043073166 -0.25097245 255
3.0005567 -0.093979813 -0.24714139 255
-8.5863171 0.051729433 -0.25139999 254.98824
2.981643 0.049452793 -0.25030485 255
-8.6015272 0.18678947 -0.25289476 255
-8.5963736 0.13771872 -0.25146875 255
2.9687974 0.14815845 -0.25047365 255
-8.6074095 0.24661447 -0.25006023 254.99998
2.9555759 0.24825463 -0.25043693 255.00002
-8.6188478 0.34975269 -0.25053763 255
2.9420798 0.34794331 -0.25055149 255
-8.6313601 0.45339751 -0.25084335 254.9518
2.9286544 0.44931206 -0.25047827 255
-8.6437826 0.55253017 -0.25084341 254.96385
2.9152951 0.55109483 -0.25040442 255
-8.6562681 0.65099984 -0.25052437 254.99998
2.8969381 0.68346798 -0.25138304 255
2.9041491 0.63373727 -0.25002795 255
-8.6687822 0.750265 -0.25051808 254.99998
2.8872707 0.74953586 -0.25044653 255
-8.6820173 0.8504824 -0.25045782 254.99998
2.8742375 0.84937286 -0.25036553 255
-8.7016668 0.99699986 -0.252 255
-8.6948528 0.94623315 -0.24898629 254.9863
2.8616295 0.95050186 -0.25041035 255
-8.7090225 1.0529253 -0.2507408 254.72839
2.8492701 1.0491297 -0.25071195 254.99998
-8.7222643 1.149195 -0.25056943 254.66667
2.8366516 1.1489451 -0.25022158 255.00002
-8.7359352 1.2459998 -0.24912347 254.49384
2.8236353 1.2499269 -0.25043219 255
-8.7499371 1.3492217 -0.25109878 254.95062
2.8103549 1.3492385 -0.25046536 255.00002
-8.7639837 1.4506109 -0.25158444 254.63637
2.7948718 1.4648618 -0.25054118 254.99004
2.8015728 1.41492 -0.25041786 255
-8.7783155 1.5491443 -0.24850002 254.36842
2.7835987 1.5494365 -0.25051424 255
-8.7931633 1.6516294 -0.25077781 254.35803
2.7697494 1.6507329 -0.25040144 255
-8.80723 1.7519714 -0.25035715 254.61429
2.756176 1.7500765 -0.25035772 254.74907
-8.8206558 1.8470001 -0.25094289 253.5
2.7422123 1.8494176 -0.25056738 254.80075
-8.8347158 1.9480246 -0.25068745 253.71251
2.7284799 1.9495412 -0.25038102 254.0262
-8.8491144 2.0507393 -0.25071016 254.13043
2.7146397 2.0498407 -0.25048566 252.67621
-8.8625469 2.1481831 -0.25112674 254.29578
2.6965554 2.1812043 -0.2506099 248.18132
2.7036307 2.131001 -0.2504729 251.65704
-8.8762903 2.2470291 -0.25024632 254.89856
2.6866653 2.2494309 -0.25032401 245.78088
-8.8896942 2.3444054 -0.25082606 254.08696
2.6653264 2.3479352 -0.25047436 192.60043
-8.9048166 2.458652 -0.25102043 254.34694
-8.8981915 2.4097147 -0.25142857 253.95239
2.6454272 2.4481976 -0.25041622 187.44923
-8.9163809 2.5451176 -0.25133821 253.45589
2.6315103 2.5483537 -0.25018293 185.67525
-8.9302912 2.6469843 -0.25019121 253.73529
2.617703 2.6487226 -0.25040999 182.99446
-8.9438667 2.748508 -0.25044778 253.85074
2.5979686 2.7924838 -0.25039068 180.10938
2.6051912 2.7407522 -0.2503117 180.83218
-8.9568682 2.8506241 -0.24981159 253.44928
2.5902283 2.8518398 -0.25021279 178.37691
-8.9708481 2.9495013 -0.25008336 251.21667
2.5770566 2.9508579 -0.25057051 177.27869
-8.985218 3.0478027 -0.25096968 249.95456
2.5639863 3.0500491 -0.2504209 174.50168
-9.0036535 3.1738083 -0.25023073 250.57693
-8.9966974 3.1270611 -0.2497576 248.93941
2.4964998 3.1747499 -0.24075001 67
2.5477371 3.1510215 -0.24969237 151.87625
-9.0134277 3.2484553 -0.25005883 248.26471
2.5398767 3.2466638 -0.25117648 157.54903
-9.0275078 3.3496842 -0.25064912 248.0351
2.5400453 3.3500063 -0.25042447 206.87755
-9.0409117 3.4457901 -0.2497894 248.98245
2.5279009 3.4492326 -0.25063902 205.0332
-9.0548611 3.5485549 -0.25090772 248.66154
2.5149772 3.5477476 -0.25040454 205.35454
-9.068964 3.6532459 -0.25010523 248.10527
2.496752 3.6811702 -0.2499214 206.92136
2.5041413 3.6283066 -0.25048253 203.6993
-9.0822935 3.7529833 -0.25143105 248.24138
2.4859118 3.7511766 -0.25039154 207.1132
-9.1021252 3.8947501 -0.25187498 246.875
-9.0950832 3.8443956 -0.25033331 247.70834
2.4715576 3.8489738 -0.25065255 201.93684
-9.1100521 3.9522858 -0.25121433 245.89287
2.4579229 3.9465146 -0.25027272 200.74867
-9.1238899 4.054091 -0.25101817 243.54544
2.4437668 4.047451 -0.25057063 184.4837
-9.136898 4.1495199 -0.25156254 242.0625
-9.1500006 4.2460017 -0.25060713 242.55359
2.4967639 4.2765417 -0.24805556 170.51389
2.5020306 4.2338114 -0.25078124 168.78125
-9.1641445 4.3515439 -0.25041819 240.67271
-3.726675 4.3760734 -0.25065634 87.59375
-3.6472375 4.3878512 -0.25043783 89.869827
-3.5846984 4.3972559 -0.24965118 90.348839
2.4876201 4.3486061 -0.25165334 168.93333
-9.1779776 4.4495749 -0.25106382 240.57446
-3.5356538 4.4040489 -0.25079367 91.341278
-3.4489698 4.4142785 -0.25053844 107.99409
-3.350312 4.4238348 -0.25003472 139.73837
-3.2513568 4.431953 -0.25005072 173.81921
-3.1700656 4.4527431 -0.25195435 178.01308
2.4747448 4.4479933 -0.24960688 167.22069
-9.1920567 4.5487161 -0.25107551 239.75471
-3.1653268 4.5523667 -0.24904814 108.88462
2.4615979 4.5502653 -0.25137416 164.91156
-9.2067661 4.6507659 -0.24978718 238.76595
-3.1748827 4.6484723 -0.25027063 83.74118
2.4487784 4.6493349 -0.25095901 163.4754
-9.2205105 4.7452226 -0.25086671 238.24445
-3.1856694 4.7474217 -0.25040206 76.134018
2.4355698 4.7475934 -0.25073689 162.12782
-9.2347336 4.8485093 -0.25007543 236.64151
-3.1946669 4.8201861 -0.24896295 74.703705
2.3909376 4.8546872 -0.2173125 75.9375
2.4208908 4.8424559 -0.25156361 144.95454
-9.2492247 4.9527345 -0.24957778 230.75555
-7.1267858 4.9566431 -0.28285715 61.714287
-7.0532346 4.9807644 -0.25329411 57.470589
-6.9925003 4.9965 -0.2255 55
-6.3407998 4.9972 -0.2922 58.200001
-6.2989998 4.9980001 -0.30000001 71
2.3524652 4.9319081 -0.25080931 147.7907
2.4118721 4.9091277 -0.25930768 150.41026
-9.2635784 5.0503774 -0.24955562 228.42223
-7.0287828 5.0190434 -0.26800004 52
-6.9618287 5.045228 -0.2276857 52.371429
-6.890667 5.0826674 -0.20299999 51.666668
-6.3252263 5.0187416 -0.24822578 59.774193
-6.2451248 5.0399065 -0.25302085 60.5
-5.6170907 5.0906363 -0.2821818 52.545456
2.3190701 5.0475197 -0.25057384 169.13043
-9.278368 5.1493483 -0.25069562 230.13043
-6.2283478 5.1317534 -0.24585712 52.67347
-5.6089506 5.1150498 -0.23795001 52.299999
-5.5408578 5.1492863 -0.2145 52.428574
-5.4432278 5.1455441 -0.23221055 60.192982
-5.3492436 5.1545811 -0.25006121 64.030609
-5.252677 5.1731391 -0.25453764 65.870964
-5.1585088 5.1859279 -0.27407274 66.94545
-5.0813332 5.1963339 -0.29300004 67.833336
2.3071523 5.1492829 -0.25047475 167.09091
-9.2926607 5.2506599 -0.24940908 231.27274
-6.3177996 5.2749205 -0.24791999 52.599998
-6.2744346 5.2854133 -0.25528261 53.130436
-5.9092312 5.2858467 -0.22300002 54.69231
-5.2243333 5.2109995 -0.20758334 62
-5.1440291 5.2353525 -0.22673526 61.117649
-5.0528698 5.2406306 -0.26264286 61.726192
-4.9615235 5.2631192 -0.28540474 59.380955
-4.8900003 5.2895002 -0.2985 57.5
2.2950606 5.2543564 -0.25072619 166.32143
2.3010004 5.2050009 -0.24850003 166.71429
-9.3067799 5.3537326 -0.25280485 227.2439
-9.3000011 5.3080001 -0.22266667 226
-7.632 5.381 -0.29899999 51
-6.2455711 5.3462076 -0.25225979 53.012985
-5.9066253 5.3134999 -0.22125 53.25
-5.1275001 5.3140001 -0.2095 52.5
-5.058167 5.3133335 -0.23716669 52.833336
-4.9578576 5.3084288 -0.273 54.000004
-4.8618002 5.303 -0.29560003 53.400002
2.2835007 5.3458948 -0.24956244 81.90625
-9.3203106 5.4519334 -0.25113332 226.60001
-7.6220002 5.4029999 -0.292 51
-7.5456462 5.4800591 -0.24364707 50.588234
-7.4854999 5.4855003 -0.204 51
-6.2539287 5.4477096 -0.25165454 52.218182
2.2700016 5.4471612 -0.25045267 93.684212
-9.3336143 5.554976 -0.25122732 227.54546
-7.5100002 5.5100002 -0.25299999 50
-7.457715 5.5192852 -0.22785714 50.714287
-7.3870001 5.513 -0.2115 50
-6.803 5.5669999 -0.211 50
-6.2682862 5.5067143 -0.25714287 51.000004
2.2581379 5.5468636 -0.25102502 123.0125
-9.3452501 5.6499982 -0.25125009 227.94444
-6.1090002 5.6325002 -0.21825001 51
-6.099 5.651 -0.243 50
-9.3576393 5.7454553 -0.25136358 225.34091
-6.4619999 5.7800002 -0.27700001 50
-9.3713408 5.8520002 -0.24931821 225.22728
-5.6508236 5.8740582 -0.22223529 50.64706
-5.5641255 5.8766251 -0.26375002 51.125
-5.3367996 5.8564 -0.28479999 50
-5.2913337 5.8626671 -0.29833335 50
-9.3837299 5.9511619 -0.25032434 223.54054
-7.8704286 5.9148579 -0.21828572 50.14286
-7.7814999 5.9154997 -0.207 50
-7.5149999 5.9695001 -0.20199999 50
-5.6298051 5.9387498 -0.22433335 50.027779
-5.5653582 5.9629245 -0.24315093 50.132076
-5.4550624 5.954062 -0.255 50.0625
-5.3624444 5.9582224 -0.29255554 50.888889
-9.401 6.0950003 -0.25200003 218.42857
-9.3944731 6.0405836 -0.24961109 220.83333
-6.7069998 6.0910001 -0.20100001 50
-6.677 6.079 -0.214 50
-5.5448256 6.0457501 -0.242275 51.25
-5.4624815 6.0602593 -0.26914814 52
-5.3812499 6.0496254 -0.29287499 51.25
-9.40837 6.1501994 -0.25157145 219.2
-8.3830004 6.1830001 -0.29899999 50
-6.638 6.1199999 -0.249 51
-5.6160002 6.1599998 -0.20100001 51
-5.5332279 6.1452575 -0.21737142 51.771427
-5.4601283 6.153872 -0.26338461 52.102566
-5.3662 6.1506 -0.29679999 50.600002
-9.4211969 6.2424994 -0.25055552 217.72223
-8.4130011 6.2599998 -0.27466667 50
-8.3705711 6.2592859 -0.28800002 50.000004
-7.1186671 6.2954998 -0.22 52
-7.06675 6.2871251 -0.21637501 52
-5.5115004 6.2420001 -0.20550001 51.5
-5.4617333 6.2427673 -0.25143331 51.083336
-5.3729997 6.2293 -0.27770001 50
-9.4359293 6.3474994 -0.24861902 218.11905
-8.4158001 6.3224006 -0.25580001 50
-8.3441963 6.3525219 -0.25597829 50
-8.2599335 6.3869338 -0.2192667 50.000004
-8.1673336 6.3913336 -0.21166667 50
-8.050333 6.3540001 -0.22366667 50
-7.9860001 6.3200002 -0.236 50
-7.217 6.3255 -0.221 51
-7.1560307 6.3174381 -0.25465626 51.5
-7.0885 6.3085003 -0.24349999 51.5
-6.9790001 6.3060002 -0.204 50
-5.5264549 6.3587275 -0.21872729 51.909092
-5.4740005 6.3409996 -0.24511112 51.222221
-9.4510298 6.4529448 -0.25202861 216.85715
-8.2600002 6.40275 -0.23349999 50
-8.1583328 6.4003334 -0.20633334 50
-5.5535831 6.43325 -0.21316668 52
-9.4650869 6.5501733 -0.24971433 215.45714
-7.2136669 6.54 -0.24333334 50
-9.477438 6.6461253 -0.24856247 201.125
-7.1844997 6.6155 -0.28549999 50.5
-9.4890528 6.7417898 -0.22815789 180.73685
-9.4979992 6.8234997 -0.20999999 145.75
2.9235001 7.281167 -0.24033332 56.5
2.9394331 7.3564997 -0.25130001 57.833336
2.9446783 7.4485369 -0.25457144 57.714287
2.9573851 7.5500002 -0.25392309 57.269234
2.97 7.6493888 -0.257 58.111111
2.9854617 7.7362309 -0.25546154 60.076927
3.006 7.7779999 -0.21966669 60
2.9909999 7.8060002 -0.28799999 64
3.0009999 7.8039999 -0.255 61
3.0815001 9.3975 -0.29299998 68.5
3.153722 9.3844442 -0.287 65.111115
3.2535863 9.3778963 -0.2782414 66.482758
3.3503783 9.3791084 -0.27059457 67.702705
3.4490283 9.3791723 -0.26985714 60.514286
3.5477822 9.3759127 -0.2811304 58
3.605 9.375 -0.26899999 52
2.9638624 9.4747238 -0.27499998 62.896553
3.049288 9.4482441 -0.25233337 66.484848
3.1477554 9.4271832 -0.23724486 71.020409
3.2456665 9.4135838 -0.22861113 72.833336
3.3475833 9.4112082 -0.22016667 72.458336
3.4481304 9.4096527 -0.22139131 58.173916
3.5450311 9.4214363 -0.2294375 52.0625
3.6133335 9.4309998 -0.23900001 51.333336
2.879385 9.5654621 -0.28400001 52.076923
2.9461999 9.5477743 -0.24284999 51.975002
3.0120001 9.5152006 -0.20999999 51.400002
2.8550999 9.6442499 -0.27550003 52.049999
2.9316669 9.6020002 -0.22733334 51
2.79 9.7810001 -0.296 53
2.8125556 9.7399998 -0.28233331 52.666668
2.7892861 9.8447151 -0.28628573 53.57143
2.8055 9.8105001 -0.26899999 53
2.7805002 9.9501991 -0.28120002 52.700001
2.8096001 9.9631996 -0.24739997 53
2.754565 10.047826 -0.27530438 53.347828
2.8191431 10.039001 -0.2274286 52.428574
2.7432003 10.1393 -0.26820001 51.900002
2.8193336 10.139334 -0.22233334 52
3.8838336 10.1495 -0.23283333 50.666668
3.9087501 10.164001 -0.22974999 50
2.7486668 10.250222 -0.27011111 52.666668
2.8247499 10.24175 -0.221375 52
-4.5384765 10.316525 -0.25059521 89.952385
-4.4455104 10.333324 -0.25065303 89.693878
-4.3449397 10.3488 -0.25142002 95.779999
-4.249907 10.361349 -0.24944188 114.27907
-4.1560001 10.37158 -0.24992 143.3
-4.0553861 10.38308 -0.25083673 175
-3.9926002 10.394201 -0.24833332 181.20001
2.7516668 10.339667 -0.26950002 52.833336
2.8218334 10.3335 -0.22050002 52.833336
3.0626156 10.376693 -0.26399997 50.92308
3.1238 10.355 -0.25320002 50.400002
-3.9952857 10.461715 -0.25100002 87.285721
2.842 10.406 -0.20200001 54
3.0530002 10.456667 -0.25766671 50.666668
3.1435001 10.459 -0.22489999 50.299999
-4.0082855 10.535429 -0.2557143 78.428574
1.9844999 10.5375 -0.22549999 57
3.0508754 10.539417 -0.23920834 51.958336
3.1584616 10.528617 -0.22207692 51.076923
-4.0279999 10.647285 -0.24842855 68.5
3.0373847 10.643231 -0.23546152 52.46154
-4.0422497 10.74625 -0.23574999 70.5
3.0474999 10.74725 -0.21250001 51.25
4.1891665 10.838167 -0.22066665 53.333336
1.5453331 11.198144 -0.24685715 211.61905
1.5485715 11.223571 -0.25400001 155.92857
1.6475396 11.212359 -0.2493 177.08
1.7513058 11.228325 -0.25138772 138.65306
1.8547751 11.241858 -0.25061226 103.20408
1.9513096 11.253284 -0.25102383 91.952385
2.0480001 11.263876 -0.25024489 92.428566
2.108 11.270286 -0.25 92.000008
1.4960002 11.366 -0.25042862 79.14286
1.5037142 11.31643 -0.245 84.714287
1.4832858 11.440287 -0.24907142 72.214287
1.4672859 11.543858 -0.25035715 69.14286
-5.415 16.294001 -0.2485 91.25
-5.3930001 16.297001 -0.25299999 90.25
-10.79 16.36825 -0.24700001 130.375
-5.3407373 16.304733 -0.25152633 92.105263
-5.2543683 16.317787 -0.24873683 92.789474
-5.1554804 16.332397 -0.24991998 104.16
-5.0472608 16.346306 -0.24886955 126
-4.9480004 16.358629 -0.25147367 162.89474
-4.8505836 16.370001 -0.24849999 191.95834
-4.7766247 16.379375 -0.25025001 203.375
-10.801 16.452499 -0.2665 150.5
-10.8 16.451 -0.2175 150
-1.7426842 16.486473 -0.24936841 141.26315
-1.664941 16.494646 -0.24794115 255
-10.812125 16.537125 -0.251625 152.25
-4.8010001 16.577 -0.205 71
-4.7987499 16.57025 -0.2595 84.75
-1.6150001 16.501431 -0.25457144 253.42859
-1.5470003 16.510374 -0.25016665 234.79167
-1.4440001 16.530373 -0.25262499 118.875
-1.3526313 16.555317 -0.25231576 77.894737
-1.2585833 16.562706 -0.24866669 148.08334
-1.1548001 16.575478 -0.24891999 155.67999
-1.0821002 16.5835 -0.25330001 172.40001
-10.827001 16.651251 -0.26050001 159.125
-6.0391669 16.688669 -0.25075001 229.75
-5.9525552 16.670053 -0.25161111 235.83333
-5.8474207 16.65163 -0.25242105 241.21053
-5.7478328 16.637611 -0.25122225 242.77779
-5.6524215 16.62579 -0.25042105 244.42105
-5.5699229 16.616463 -0.2516923 238.61539
-4.809 16.684999 -0.255 236.60001
-4.7650003 16.694923 -0.2496154 255.00002
-1.0295002 16.604502 -0.24692857 178.71429
-10.842999 16.768 -0.24750002 160.75
-6.2480717 16.741714 -0.25350004 225.07144
-6.154469 16.716413 -0.24970588 227.88235
-6.0914001 16.701002 -0.25240001 230.40001
-4.7126002 16.703499 -0.2554 255
-4.6446109 16.712833 -0.25133336 255
-4.5470438 16.722914 -0.25169566 255
-4.4488416 16.732944 -0.25052634 255
-10.85575 16.85675 -0.25650001 155.25
-4.4134998 16.809502 -0.2475 75.25
-3.4160001 16.881668 -0.25466669 212.66667
-3.3509479 16.884314 -0.24915791 255
-3.2726429 16.894716 -0.25064287 255.00002
-10.869 16.947124 -0.25337499 147.75
-4.4247499 16.939501 -0.25 78.5
-3.2204995 16.901875 -0.248125 255
-3.1471672 16.911751 -0.24920833 255
-3.0473163 16.925686 -0.25226316 255
-2.952652 16.938999 -0.24991301 255
-2.8456089 16.953653 -0.24843481 255
-2.7475259 16.966843 -0.24984212 255
-2.6511667 16.980124 -0.249625 255
-2.5542781 16.993166 -0.24911113 255
-10.8838 17.051001 -0.25799999 142
-2.503 17 -0.2552 255
-2.4473886 17.007442 -0.25011113 255
-2.350435 17.019957 -0.24943478 255
-2.2452919 17.033123 -0.25008333 255
-2.1494207 17.045528 -0.25105265 255
-2.0526526 17.058826 -0.25134784 255
-1.945652 17.073437 -0.25 255
-1.8722221 17.080557 -0.25266665 207.55556
-10.895167 17.130167 -0.24716666 145
-1.0030001 17.195999 -0.2454 255
0.69400001 17.199001 -0.26833332 100.33334
0.7556088 17.118351 -0.25186953 186.52174
0.85515803 17.135685 -0.25131577 160.89474
0.95269561 17.152479 -0.24856523 123.30435
1.0524445 17.169109 -0.25183335 101.38889
