# .PCD v0.7 - Point Cloud Data file format
VERSION 0.7
FIELDS x y z intensity
SIZE 4 4 4 4
TYPE F F F F
COUNT 1 1 1 1
WIDTH 1169
HEIGHT 1
VIEWPOINT 0 0 0 1 0 0 0
POINTS 1169
DATA ascii
-3.1483614 4.6482768 -1.3564675 81.404251
-3.0524678 4.6488504 -1.3567441 78.340424
-2.9508367 4.650939 -1.355979 77.551018
-2.8490846 4.647893 -1.3549358 75.276596
-2.7480783 4.6483927 -1.354039 78.274513
-2.6485286 4.650434 -1.3540752 77.396225
-2.5480924 4.6507592 -1.3545185 77.203705
-2.4495924 4.6505179 -1.3548888 76.203705
-2.3492835 4.6476793 -1.3545281 80
-2.250638 4.647759 -1.3544651 87.827583
-2.1503332 4.6514459 -1.3543016 89.730164
-2.0513897 4.6491694 -1.3545934 89.440681
-1.9507376 4.6482291 -1.3543441 88.180321
-1.8504922 4.6480155 -1.3541685 88.707695
-1.7494379 4.6504369 -1.3542026 86.96875
-1.6507999 4.6486773 -1.3543838 87.984619
-1.5495796 4.6482592 -1.3547105 87.95652
-1.4507076 4.6485844 -1.3550929 84.646156
-1.3527571 4.6489153 -1.3556863 85.471428
-1.2510284 4.6485991 -1.3567574 89.885712
-1.1503243 4.6502962 -1.3574197 89.716217
-1.0512029 4.6491756 -1.3575143 89.013519
-0.94974291 4.6493721 -1.3572433 90.085716
-0.85063899 4.6498475 -1.3576955 92.180557
-0.75101334 4.6495538 -1.3574604 92.405411
-0.64989603 4.6496887 -1.3571433 94.506493
-0.5502308 4.6487312 -1.3569108 96.525642
-0.45013416 4.6492195 -1.3564519 95.073166
-0.34954882 4.6482434 -1.3561105 91.31707
-0.25092408 4.6485572 -1.3559375 90.063293
-0.1502317 4.6488299 -1.3547685 92.902435
-0.042736832 4.6548705 -1.3484734 103.22807
0.023709409 4.6373 -1.3304274 94.837608
0.11566668 4.6684666 -1.3365333 74.333336
1.0699998 4.6456194 -1.3567138 78.023811
1.1489067 4.6466799 -1.3568405 83.360001
1.2493833 4.6487813 -1.3572747 85.013695
1.3485491 4.6480417 -1.3571976 79.577461
1.4491831 4.6488729 -1.3575218 79.253517
1.5494003 4.6493387 -1.3579086 81.123077
1.6499555 4.6484852 -1.3579421 83.75
1.7506614 4.650816 -1.358001 84.292305
1.8495469 4.6482029 -1.358001 82.390625
1.9500479 4.64854 -1.3579376 81.047623
2.0501091 4.646687 -1.3574694 81.34375
2.1497343 4.6499686 -1.3563907 80.46875
2.2484837 4.6511455 -1.3556453 78.903221
2.3487861 4.6475725 -1.3570539 80.446434
2.4485765 4.6486435 -1.3585939 79.677963
2.5483389 4.6493554 -1.3596615 76.694916
2.6518703 4.6472592 -1.3607038 75.462967
2.7506154 4.6464615 -1.3604233 75.057693
2.8460965 4.6532879 -1.3599235 75.71154
2.9513016 4.6505094 -1.3579247 74.886795
3.0470839 4.649292 -1.356041 74.3125
3.1519799 4.6519175 -1.3553537 73.75
3.2469542 4.650795 -1.3551588 72.954544
3.345196 4.6450434 -1.3548911 72.434784
3.4467313 4.6474876 -1.3546827 71.243896
3.5475235 4.6534991 -1.3543094 71.547623
3.6461504 4.6456003 -1.3547498 70.950005
3.7486253 4.654325 -1.3541501 70.900002
3.8467579 4.6543331 -1.3538789 70.393944
3.9508052 4.6451664 -1.3535558 70.527779
4.0487232 4.6502223 -1.3536391 70.944443
4.1462059 4.6521759 -1.3536471 70.676468
4.2511482 4.6496668 -1.3538889 70.111115
4.354548 4.6462898 -1.353871 68.516129
4.4512939 4.6449704 -1.3539118 69.058823
4.5495148 4.647213 -1.3539091 69.515152
4.6480603 4.6529698 -1.3539091 67.484848
4.7456207 4.6491718 -1.3541379 68.172417
4.8492508 4.6435409 -1.3548331 68.291672
4.9497085 4.6452498 -1.3549581 68.708336
5.0496092 4.646348 -1.3548694 68.652176
5.1479168 4.6443329 -1.3542917 68.375
5.2496524 4.641696 -1.3537828 67.652176
5.3479567 4.6400003 -1.3530438 68.260872
5.4493637 4.6360002 -1.3528639 68.727272
5.5457139 4.6339998 -1.3524286 69.571426
5.6486673 4.6496668 -1.3528668 67.866669
5.7549992 4.6558127 -1.3530625 68.4375
5.8507509 4.6603503 -1.3524998 68.700005
5.9499526 4.6601434 -1.352762 69.571426
6.0507903 4.6522632 -1.3527372 69.842102
6.1476316 4.6552639 -1.3530527 69.578949
6.2494211 4.6501579 -1.3534737 69.473686
6.3498497 4.6490002 -1.3538501 68.800003
6.4484997 4.642375 -1.3539375 66.125
6.5474744 4.6463156 -1.3547893 65.631577
6.6508117 4.6436253 -1.3553123 65.1875
6.7560835 4.6525002 -1.3550833 65.25
6.8511825 4.6500907 -1.3551817 65.454544
6.9470005 4.6587648 -1.3549998 66.470589
7.050056 4.6552777 -1.3552777 65.777779
7.1501999 4.6508002 -1.3557999 67
7.243813 4.6487498 -1.3551247 68.1875
7.3527498 4.6467505 -1.3556665 67.5
7.4518008 4.6560001 -1.3566002 68.300003
7.5508184 4.6467271 -1.3565456 68.909096
7.6466002 4.6382003 -1.3561 66.800003
7.7537141 4.6538572 -1.3569287 67.64286
7.8454623 4.6590004 -1.356154 69.153847
7.9480004 4.6587005 -1.3556 66.800003
8.053545 4.6515455 -1.3549091 68.818184
8.1575994 4.638 -1.3539001 68
8.2526369 4.6452727 -1.3532728 68.818184
8.3514013 4.6650004 -1.353 70.5
8.4534445 4.6538892 -1.3521112 73.222221
8.5510006 4.6436996 -1.3514 73.099998
8.6485004 4.6333747 -1.351 72.5
8.7468891 4.6367784 -1.3514445 71.333336
8.8508749 4.6669998 -1.3520001 72.5
8.9487772 4.6641111 -1.3517778 74.555557
9.0479994 4.6517506 -1.351375 74
9.1507511 4.6465001 -1.3515 73.5
9.2444286 4.6357145 -1.3525716 73.428574
9.3452234 4.6340008 -1.3529999 74.666664
9.4410009 4.6307998 -1.353 75
9.5474291 4.6682863 -1.353143 74.428574
9.6429996 4.6625004 -1.3529999 73.25
9.7414293 4.6571426 -1.3535714 70.857147
9.846858 4.6468573 -1.3552858 71.857147
9.9514999 4.6429996 -1.3548751 73.375
10.047667 4.6420002 -1.3545001 72.833336
10.15525 4.645 -1.35375 73.25
10.253286 4.6665716 -1.3532857 72
10.351714 4.6484289 -1.3524286 71.14286
10.445 4.6589999 -1.3507999 70
10.529 4.665 -1.35 69
-7.1103334 4.7077775 -1.3211112 196.55556
-7.0531788 4.751709 -1.3301611 175.01613
-6.9534998 4.7554998 -1.3536249 105.25
-6.8495007 4.7435718 -1.355143 90.857147
-6.7545562 4.7436666 -1.3552777 87.166664
-6.6561112 4.7498889 -1.3558331 84.5
-6.5564446 4.753778 -1.3557775 82
-6.4547362 4.7588425 -1.3555262 79.157898
-6.3508954 4.7568426 -1.3548945 77.105263
-6.2471051 4.7588944 -1.354158 78
-6.149632 4.7608943 -1.3543683 78
-6.0498753 4.7513123 -1.3545625 76.1875
-5.9475336 4.7545342 -1.3547999 74.200005
-5.8473682 4.7371054 -1.3549998 74.947372
-5.7517147 4.7369523 -1.3553331 74.761909
-5.6495461 4.7421365 -1.355636 77.136368
-5.5494285 4.7423811 -1.355571 76.476189
-5.4501429 4.7412853 -1.3552855 76.238098
-5.3514347 4.7413907 -1.3554779 77.739128
-5.2494092 4.7429094 -1.3554544 81.136368
-5.152348 4.7413034 -1.3559995 84.521744
-5.0508752 4.7420835 -1.35625 89.458336
-4.9531665 4.7450008 -1.3568335 92.333336
-4.8531599 4.7415605 -1.3570001 91.079994
-4.7493334 4.7495999 -1.3572 91.700005
-4.6496978 4.7501512 -1.3576365 90.57576
-4.5519333 4.7501674 -1.3573666 87.76667
-4.4555168 4.7475514 -1.3568619 83.689651
-4.3517308 4.7480392 -1.3557304 80.46154
-4.2492003 4.749001 -1.3550568 82.742859
-4.1501722 4.7463427 -1.3554282 83.885712
-4.0511074 4.7507148 -1.3557496 83.214287
-3.947156 4.7513442 -1.3559681 84.5
-3.8495643 4.7525902 -1.3567432 85.487183
-3.7504442 4.7421384 -1.3569162 85.25
-3.6499443 4.7554717 -1.3569163 86.416664
-3.5511501 4.7456498 -1.3562493 86.625
-3.4549265 4.7518044 -1.3563896 85.292679
-3.3497953 4.7441592 -1.3564312 82.818184
-3.2501822 4.7523632 -1.356704 80.795456
-3.148068 4.7499781 -1.3564314 75.727272
-3.0488861 4.7492046 -1.3565676 76.454544
-2.9505529 4.7526169 -1.3563824 78.723404
-2.8519559 4.7481337 -1.355755 74.844444
-2.7534471 4.7504249 -1.3547869 74.19149
-2.651408 4.7485504 -1.3538163 75.142853
-2.5518887 4.7499819 -1.3544439 80.277779
-2.4507921 4.7496042 -1.3546982 78.452835
-2.3513572 4.7475004 -1.3546968 79.071434
-2.2487898 4.7471576 -1.3540521 80.578949
-2.1518705 4.7515926 -1.3543146 82.129631
-2.0512667 4.7498002 -1.3547335 86.616669
-1.9515263 4.7478938 -1.3550178 86.456139
-1.8513666 4.7498336 -1.3549339 84.650002
-1.7513669 4.7494502 -1.3549005 85.900002
-1.6519191 4.750742 -1.3550327 85.629028
-1.5510938 4.748312 -1.3552817 85.328125
-1.4506248 4.7504368 -1.3561254 85.171875
-1.348884 4.7502756 -1.3565801 89.159424
-1.2493331 4.7476974 -1.3571216 91.86364
-1.1510596 4.7503576 -1.3574933 92.164177
-1.0507611 4.749835 -1.3578515 91.283577
-0.95012653 4.7468033 -1.3576344 91.112671
-0.85005486 4.7498908 -1.3577818 94.986298
-0.75022995 4.7495279 -1.3572842 100.67567
-0.6499868 4.7497339 -1.3565072 97.973335
-0.55015385 4.7484732 -1.3559109 90.192307
-0.44970265 4.7492304 -1.3554063 89.054054
-0.35160008 4.7493863 -1.355161 87.386665
-0.25016668 4.7475386 -1.3547177 96.705132
-0.14303002 4.755631 -1.3493688 102.93999
-0.06095919 4.7377439 -1.3350612 98.612244
0.055941176 4.7585878 -1.3412355 80.147057
0.11479999 4.7479005 -1.348 83.400002
1.08268 4.7464399 -1.3572 79.919998
1.1516178 4.7495294 -1.3570738 78.544121
1.2486912 4.7467208 -1.356324 79.161766
1.3491493 4.7499099 -1.3567913 78.9403
1.4505886 4.7478089 -1.3570443 77.514709
1.5505691 4.7498317 -1.3575546 80.476921
1.6480641 4.7494516 -1.3578073 82.870964
1.7486668 4.750843 -1.3580011 84.412704
1.8488709 4.7494674 -1.3579848 83.91935
1.9473335 4.7470508 -1.3578007 80.983337
2.0485337 4.7478004 -1.3569669 80.983337
2.1503277 4.7505698 -1.3558793 79.362068
2.2491999 4.750927 -1.3545998 80.090904
2.3489122 4.7461238 -1.3553334 79.245613
2.4493401 4.7496414 -1.3568301 79.528305
2.5496607 4.7521324 -1.3584157 80.471703
2.6472504 4.7472501 -1.3595966 76.71154
2.7483768 4.74751 -1.3594722 77.264153
2.8530993 4.7496405 -1.3586205 76.459999
2.9476671 4.751689 -1.3579117 75.511116
3.0481226 4.7493868 -1.3560605 75.836731
3.1484525 4.7505956 -1.3546188 76.309525
3.2470684 4.7495003 -1.3542954 73.75
3.3497443 4.7506742 -1.3547672 71.976746
3.4491193 4.7468104 -1.3548093 71.785713
3.5482001 4.7536855 -1.3548568 71.057144
3.6494007 4.7470746 -1.3549997 70.875
3.7458789 4.7541208 -1.3548785 70.9394
3.8515434 4.7464576 -1.3541714 69.771431
3.9509461 4.7482162 -1.3540272 70.216217
4.0481176 4.7542353 -1.3538824 70.235298
4.1527586 4.7468619 -1.3539311 70.206894
4.2493434 4.7462287 -1.3539429 70.742859
4.3489995 4.7500577 -1.354 70.264709
4.4444079 4.7480006 -1.3539259 69
4.5492311 4.7478852 -1.3539616 69.5
4.6483045 4.7537823 -1.354087 70.08696
4.7507939 4.749517 -1.354 68.965515
4.8494368 4.7462192 -1.3539063 68.75
4.9499369 4.7479382 -1.3537813 69.78125
5.0506124 4.7509351 -1.3535485 69.41935
5.1492763 4.7502069 -1.3535173 68.620689
5.2477598 4.7384 -1.3534801 68.360001
5.3465905 4.7415457 -1.3534547 67
5.4440918 4.737546 -1.3533185 67.36364
5.5504351 4.7359562 -1.353348 68.478264
5.650701 4.7374511 -1.3533001 68.650002
5.7492499 4.73805 -1.3535502 69.599998
5.8518558 4.7477145 -1.3527858 69.785721
5.9459338 4.7587333 -1.3528668 67.866669
6.0477333 4.7520003 -1.3527333 67.933334
6.1433125 4.7549372 -1.3531876 67.9375
6.2501431 4.7470002 -1.3535001 68.14286
6.3468342 4.7577782 -1.3537222 67.388893
6.4509373 4.750937 -1.3544375 66.625
6.5524373 4.7594995 -1.3550624 67.0625
6.6493163 4.749579 -1.3547367 66.789474
6.7486472 4.7505293 -1.3547058 66.352943
6.8461761 4.7445292 -1.3542941 66.176468
6.9477501 4.758667 -1.3543334 65.916672
7.0463996 4.7552004 -1.3549 66.400002
7.1499996 4.7536669 -1.3549999 66.333336
7.2488184 4.7419095 -1.3547271 66.636368
7.3503008 4.7415004 -1.3547 66.5
7.4501815 4.7384553 -1.3552727 67.454544
7.5495 4.7550621 -1.3553748 68.5
7.6481538 4.7462311 -1.3556924 67.384621
7.747539 4.7632308 -1.3565387 69.307693
7.8525004 4.7564001 -1.3554 69.099998
7.9507775 4.7485552 -1.3550001 69.111115
8.0453005 4.7429004 -1.3547999 66.5
8.1482735 4.7335458 -1.3540909 67.636368
8.2466373 4.7605457 -1.3532727 67.36364
8.3522005 4.7625999 -1.3527 67.5
8.4553003 4.7513995 -1.3524001 70.200005
8.5547495 4.7435002 -1.3514999 72.125
8.6516666 4.7342224 -1.3515556 72.333336
8.7510004 4.739778 -1.3511111 73.333336
8.8496008 4.7627006 -1.3506001 72.700005
8.9519997 4.7598572 -1.3510001 72.571434
9.0427494 4.7572498 -1.351 72.375
9.1392498 4.7497501 -1.3515 72.25
9.2457495 4.74575 -1.352375 71.875
9.3544998 4.7426248 -1.3529999 73.75
9.4533749 4.7329998 -1.35325 74.75
9.5573997 4.7596002 -1.3528001 75.800003
9.6504288 4.7637148 -1.3522859 73.714287
9.7493334 4.7670002 -1.3531666 70.5
9.8500004 4.7615719 -1.3548571 71.14286
9.9505558 4.7573333 -1.3546666 72.888893
10.048668 4.742167 -1.3535001 72.666672
10.147285 4.7420001 -1.3538573 72.14286
10.238501 4.7455001 -1.3535 72.5
10.3492 4.7416 -1.3526 71.400002
10.459334 4.7601666 -1.3518333 69.5
10.543667 4.7508335 -1.3513334 67.833336
10.642 4.7551665 -1.3510001 66.666672
10.7495 4.7705002 -1.351 66
-7.0080004 4.8040004 -1.3203334 185.83334
-6.9473381 4.8496318 -1.3300735 172.17647
-6.8546309 4.859684 -1.3535789 107.84211
-6.7488465 4.845077 -1.3552307 90.230774
-6.6531668 4.8504162 -1.3550832 87.583336
-6.5565834 4.8487506 -1.3549999 84.333336
-6.4567509 4.8506665 -1.3549999 80.25
-6.3505006 4.8524284 -1.354857 77.285721
-6.2480907 4.8510003 -1.3541819 76
-6.1537695 4.8553076 -1.3546153 75.307693
-6.051722 4.8407226 -1.3545555 74.611115
-5.9515247 4.8421903 -1.3543808 75.904762
-5.8488002 4.8413501 -1.3548998 75.450005
-5.7483506 4.8415995 -1.3546999 76.300003
-5.6510954 4.8417139 -1.3550949 79.095238
-5.5527148 4.8427625 -1.3557616 75.714287
-5.4509048 4.8359041 -1.3546189 74.14286
-5.3535719 4.8404765 -1.3548093 75.285713
-5.2551603 4.8415594 -1.3550797 76.799995
-5.1509166 4.836 -1.3554163 80.625
-5.0509257 4.8458886 -1.3562219 87.518517
-4.9500008 4.8492756 -1.3568621 91.310341
-4.8515487 4.8485799 -1.3570642 94.193542
-4.7550745 4.850852 -1.3571852 96.037041
-4.652308 4.853385 -1.3571925 95.769234
-4.5490003 4.8502793 -1.3578401 93.040001
-4.4459643 4.8497148 -1.3570358 88.14286
-4.3531294 4.8499355 -1.3567094 85.096771
-4.2523932 4.8486433 -1.3558925 83.821434
-4.1463003 4.8508339 -1.3559661 84.466675
-4.0496392 4.8487225 -1.3561659 84.583336
-3.9535937 4.8453121 -1.3563434 86.09375
-3.8480856 4.8536859 -1.3569139 87.371429
-3.7523057 4.8470283 -1.3569996 87.722221
-3.6498613 4.8496656 -1.3568606 85.583336
-3.5523717 4.847486 -1.3566281 84.285713
-3.4526002 4.8529258 -1.3566995 85.474998
-3.3513505 4.8447013 -1.3562996 83.099998
-3.2510254 4.8520751 -1.3566996 81.675003
-3.1510735 4.850122 -1.3570238 78.463409
-3.0497859 4.8493333 -1.3569281 78.071426
-2.9491162 4.8499775 -1.3560923 78.534882
-2.849489 4.8488674 -1.3559771 76.91111
-2.7479997 4.8493342 -1.3556883 74.044449
-2.6474133 4.8506522 -1.3543478 73.673912
-2.5487959 4.8493261 -1.354102 77.755104
-2.4502602 4.8489594 -1.35426 75.199997
-2.3503852 4.8475199 -1.3540382 75.384621
-2.2513018 4.8493209 -1.3543396 73.018867
-2.1487036 4.8500934 -1.3547779 74.388893
-2.050904 4.8493853 -1.3550769 79.25
-1.9501382 4.8481207 -1.3551209 81.620689
-1.8496727 4.8485818 -1.3553637 84.872726
-1.7509153 4.8503213 -1.3553561 85.305084
-1.648932 4.8492379 -1.3555596 83.677963
-1.5477626 4.849102 -1.3560338 85.728813
-1.4490169 4.8505335 -1.3562666 90.133339
-1.3508033 4.8502288 -1.3568196 93.245895
-1.2504089 4.8474703 -1.3570002 94.742424
-1.149791 4.8487611 -1.3570598 96.522385
-1.0506819 4.8487573 -1.357258 94.86364
-0.95100009 4.8483143 -1.3572004 94.114288
-0.8504411 4.8506031 -1.3569268 97.882355
-0.75052166 4.84829 -1.3562903 97.391304
-0.65227526 4.8494058 -1.3555659 90.028984
-0.55050004 4.8505287 -1.3550436 87.199997
-0.45162857 4.8490143 -1.3549865 89.385712
-0.35023195 4.8487105 -1.3548557 91.173912
-0.24417441 4.8552213 -1.3507205 100.97675
-0.16296001 4.8404603 -1.3361897 100.39
-0.051259268 4.8440733 -1.3380738 77.925926
0.053163264 4.8566532 -1.3529385 90.714287
0.11989476 4.849947 -1.353421 83.578949
1.0921249 4.838625 -1.3570001 82.25
1.1482923 4.8485994 -1.3567848 78.446152
1.2498747 4.8473754 -1.3566564 77.21875
1.3508362 4.8475571 -1.356541 78.114746
1.4501745 4.8499379 -1.3569525 79.333336
1.5525331 4.849834 -1.3571668 79.800003
1.6511035 4.8478284 -1.3575176 83.086205
1.7481862 4.8504229 -1.3575938 85.271187
1.848417 4.8511496 -1.3572503 83.566673
1.9506336 4.8474007 -1.356867 81.166672
2.0500169 4.8484917 -1.3563558 79.593224
2.1498868 4.8478303 -1.3556035 78.71698
2.2497737 4.8491702 -1.3543961 79.452835
2.3495095 4.8503394 -1.3548113 78.018867
2.4504199 4.8486195 -1.3558395 79.639999
2.5482712 4.8496876 -1.356812 79.729172
2.648294 4.8488626 -1.3583928 78.450981
2.7498567 4.8468571 -1.3584496 78.32653
2.847652 4.8480449 -1.3576088 77.45652
2.9488752 4.8497081 -1.3565619 75.270836
3.0522552 4.850255 -1.355978 77.340424
3.146786 4.848 -1.3544998 76.571426
3.2469511 4.8499279 -1.3540488 74.63414
3.3482502 4.8510013 -1.3540001 72.900002
3.4494472 4.8454475 -1.3547103 72.631577
3.5482287 4.8490005 -1.3549711 71.599998
3.6503849 4.8491278 -1.3549997 71.564102
3.753406 4.8491879 -1.3552184 72.1875
3.8488333 4.8469167 -1.3547776 72.777779
3.9438787 4.8522735 -1.3541516 71.060608
4.0508671 4.8485007 -1.3539335 70.166672
4.151 4.8491144 -1.354 70.599998
4.2482185 4.8538132 -1.3539687 71.40625
4.3508844 4.8486147 -1.3536924 71.153847
4.454258 4.8453875 -1.3538387 69.709679
4.55091 4.8514237 -1.3539394 69.818184
4.6470771 4.8452692 -1.3538847 69.269234
4.7488742 4.8465414 -1.3537085 70.708336
4.8490415 4.8502498 -1.3536251 70.541672
4.9496522 4.8527822 -1.3530438 69.95652
5.0477505 4.8564172 -1.3522916 70.25
5.1514287 4.8580956 -1.3529526 68.238098
5.2521853 4.8491116 -1.3539629 69.222221
5.3544497 4.8405504 -1.3539001 68.200005
5.4516006 4.83815 -1.35425 67.550003
5.5479045 4.8407621 -1.3544285 67.809525
5.6480484 4.8411908 -1.3539525 68
5.7463346 4.8384762 -1.3536192 68.380951
5.8497615 4.8382382 -1.3529526 68.857147
5.9567647 4.8455291 -1.3532354 68.764709
6.047647 4.839118 -1.3528235 66.117645
6.1540003 4.8448 -1.3539335 66.800003
6.2439408 4.8400006 -1.354 67.588234
6.3481545 4.8544612 -1.3543847 67.153847
6.4479337 4.8414674 -1.3546666 67.200005
6.548769 4.8531542 -1.354923 67.615387
6.6477504 4.8509164 -1.3540834 67.5
6.7526674 4.8435001 -1.3539166 67.583336
6.8467278 4.8418179 -1.3535454 66.272728
6.9487333 4.8568001 -1.3540001 66.26667
7.0522351 4.8520007 -1.3538824 67.058823
7.1525297 4.8532939 -1.3536471 67.705879
7.2546668 4.8495998 -1.3538668 67.53334
7.349134 4.8461337 -1.3544667 67.200005
7.4438004 4.841867 -1.3545333 68.400002
7.5440001 4.8596001 -1.3537999 68.5
7.6431003 4.8558002 -1.3547 68.300003
7.7449007 4.8527002 -1.3552002 70.099998
7.8481822 4.8432732 -1.354091 70.272728
7.9442225 4.8385558 -1.3535556 66.777779
8.0455551 4.8327775 -1.3545556 66.555557
8.1519098 4.837182 -1.3545455 66.272728
8.2607775 4.8606668 -1.3543334 68.222221
8.3536673 4.8605561 -1.3527777 67.555557
8.4541101 4.8494439 -1.3521112 67.333336
8.549778 4.8459997 -1.3515555 70
8.6461115 4.830667 -1.3508888 72.333336
8.7484999 4.848 -1.3505 72.800003
8.8576679 4.8631668 -1.3500001 72.666672
8.9453754 4.8648748 -1.3505 71.25
9.0438747 4.8598752 -1.351 70.125
9.1537495 4.8597498 -1.3521252 70.375
9.2562494 4.8546247 -1.3527499 72.75
9.3465719 4.8498573 -1.3525716 73.571434
9.4432497 4.8397503 -1.3522501 73.75
9.5438576 4.8310003 -1.3520001 73.714287
9.6500006 4.8541999 -1.3520001 71.800003
9.7523336 4.8443332 -1.3526667 70.333336
9.8615999 4.868 -1.3542 70.400002
9.9471674 4.8715 -1.3541667 73.166672
10.049222 4.8595557 -1.3536667 73.222221
10.147334 4.8513336 -1.3536667 71.833336
10.238857 4.8477149 -1.3532859 71.285721
10.344572 4.8342867 -1.353 70.571434
10.4315 4.8472505 -1.353 70.5
10.53825 4.8522501 -1.3527501 69.5
10.650001 4.8471999 -1.3513999 67.400002
10.751666 4.8610001 -1.3516667 66.333336
10.849001 4.8556671 -1.3516668 65.833336
10.944334 4.8816671 -1.352 66
11.017 4.881 -1.352 66
-6.901 4.9050002 -1.302 185
-6.8474464 4.9461999 -1.327508 173.26154
-6.7624769 4.9519053 -1.3515236 108.14286
-6.657588 4.9463534 -1.3545294 90.176468
-6.5517898 4.9458942 -1.3543158 83.368423
-6.4497781 4.941278 -1.3541112 80.5
-6.3544707 4.9488821 -1.3545293 78.588234
-6.2510471 4.9468093 -1.3544761 77.047623
-6.1488333 4.9481668 -1.3547777 75.944443
-6.0509477 4.9478951 -1.354684 75.631577
-5.9525008 4.9483337 -1.3548886 74.722221
-5.8502274 4.9481821 -1.3549089 74.818184
-5.7518826 4.9427638 -1.3543528 75.176468
-5.6515212 4.9414778 -1.3541739 82.565216
-5.5517149 4.94519 -1.3554761 79
-5.4483185 4.9419093 -1.3554542 75.272728
-5.3482385 4.9407144 -1.3548568 73.14286
-5.2508097 4.9406667 -1.3552378 75.285713
-5.151269 4.9429622 -1.3558843 79.846153
-5.0504079 4.9537411 -1.3561848 86.185188
-4.9509168 4.9569998 -1.3569586 92.166672
-4.8514352 4.9538264 -1.3570004 94.347824
-4.7512083 4.9492912 -1.3570002 96.875
-4.6512399 4.9479198 -1.3570801 98.720001
-4.5510969 4.9493551 -1.3571934 97.967735
-4.4540668 4.9502325 -1.3571666 92.333336
-4.3475194 4.9502792 -1.35704 89.360001
-4.2453933 4.9454651 -1.3567144 87.250008
-4.1527095 4.950387 -1.3568708 88.354836
-4.0496535 4.948885 -1.3572693 87.307693
-3.9504368 4.9481244 -1.357469 87.9375
-3.8563337 4.9519343 -1.3575003 87.400002
-3.7487633 4.9522376 -1.3573946 86.631577
-3.6515627 4.9447813 -1.357031 86.9375
-3.5514286 4.9506292 -1.3570284 86.800003
-3.4505835 4.9504995 -1.3569996 87
-3.3493333 4.9455137 -1.3569995 85.128204
-3.2493331 4.9515381 -1.3569995 84.769234
-3.1533656 4.9524632 -1.3569994 82.682922
-3.0518138 4.9474888 -1.3568133 79.930229
-2.950093 4.9503498 -1.3565342 79.488373
-2.849046 4.9489541 -1.356022 80.61364
-2.7497442 4.948256 -1.3560457 75.767441
-2.652024 4.9504395 -1.3556581 74.170731
-2.5495112 4.9494228 -1.3545998 74.400002
-2.4511023 4.9483662 -1.354061 76.897957
-2.3494802 4.9481993 -1.3539999 74.379997
-2.2490406 4.9489799 -1.354755 69.448975
-2.1513469 4.950633 -1.3554281 71.040817
-2.0512266 4.9483581 -1.3558865 73.981133
-1.9513075 4.9503837 -1.3558651 76.480774
-1.8503394 4.9485354 -1.3559107 82.875
-1.7498078 4.9506164 -1.3562112 84.884621
-1.6508867 4.9476418 -1.3566978 84.584908
-1.5503222 4.9490843 -1.3565931 86.542374
-1.4502455 4.948842 -1.3567543 88.98246
-1.3516439 4.9487114 -1.3569322 92.881355
-1.2511612 4.9500632 -1.357 95.080643
-1.1490158 4.9502811 -1.3570001 97.078125
-1.0495714 4.9487143 -1.3569525 94.968262
-0.95043075 4.9505844 -1.3566617 96.169228
-0.85025406 4.9479375 -1.3561274 91.730164
-0.75083572 4.9491348 -1.3555228 87.1791
-0.64892429 4.950016 -1.3549398 85.818184
-0.55095309 4.9495153 -1.3543431 88.109375
-0.44960299 4.9495883 -1.3545883 95.102943
-0.34506494 4.9530134 -1.3525326 101.42857
-0.25840548 4.9420004 -1.3365855 102.21622
-0.14319232 4.9566545 -1.342 82.42308
-0.05318604 4.9462099 -1.3503956 85.581398
0.044281684 4.9512806 -1.3544787 86.647888
0.1205 4.9596534 -1.3574998 83.769234
1.1550357 4.9465537 -1.3561605 75.75
1.2496271 4.9469666 -1.3565255 77.338982
1.3484669 4.948483 -1.3571501 80.300003
1.4487896 4.9490356 -1.3570174 80.719299
1.55 4.9488993 -1.3570833 82.933334
1.6491092 4.9491267 -1.3569998 84.745453
1.7502756 4.9492249 -1.3572245 86.120689
1.849434 4.9498115 -1.3568677 82.943398
1.9491965 4.9495173 -1.356232 78.446434
2.0488799 4.9494596 -1.3560194 78.82
2.1478543 4.9465809 -1.3552362 79.981819
2.24948 4.9501195 -1.3549598 80.720001
2.347378 4.9510894 -1.3549775 77.777779
2.448796 4.9481831 -1.3556728 76.551018
2.5494585 4.951438 -1.356312 76.520836
2.6511085 4.950326 -1.357326 79.695656
2.7489791 4.9477091 -1.3573334 79.395836
2.8496125 4.9475508 -1.3566729 77.204079
2.9503024 4.9496284 -1.3554879 75.604652
3.0498779 4.9488301 -1.3550729 76.390244
3.1512749 4.9471254 -1.3549247 76.825005
3.2514052 4.9487848 -1.3544865 76.324326
3.3507953 4.9526672 -1.354077 74.897438
3.4501286 4.9456415 -1.3541282 73.615387
3.5498378 4.9479733 -1.3546485 73.162163
3.6464441 4.9524717 -1.3548609 72.166664
3.7468529 4.9440289 -1.3551466 72.352943
3.8462367 4.9517369 -1.3546314 73.394737
3.9521794 4.9457855 -1.3542857 71.821434
4.046658 4.9496861 -1.3541714 71.085716
4.1459308 4.9495173 -1.3540344 71.206894
4.2532501 4.9497852 -1.3538215 71.39286
4.3490906 4.9509096 -1.3533639 71.454544
4.4472308 4.9463849 -1.3539231 70.92308
4.5504169 4.953959 -1.353875 71.166672
4.6518998 4.9478331 -1.3535669 70.066673
4.7473793 4.949173 -1.3531382 69.655174
4.8470798 4.9460802 -1.3533601 72.040001
4.9477496 4.9447083 -1.3524168 71.666672
5.0499096 4.9489541 -1.3521361 70
5.1495914 4.9575005 -1.3527727 68.136368
5.2493815 4.9571428 -1.3534763 69.666672
5.3484173 4.9405422 -1.3536668 69.125
5.4504285 4.9395714 -1.3543334 68.476189
5.549737 4.9473691 -1.3550524 69.210526
5.6489539 4.9478183 -1.355318 70.227272
5.7459998 4.9443684 -1.3540527 67.789474
5.8456831 4.946682 -1.3533639 68.36364
5.951685 4.9457893 -1.3536317 69.105263
6.046895 4.9462099 -1.3531054 67.052635
6.1459999 4.9480553 -1.3536669 64.444443
6.2472634 4.9502096 -1.354 65.526314
6.3459411 4.9512944 -1.3545882 67.352943
6.4464211 4.9493151 -1.3543159 67.736839
6.547833 4.9536662 -1.3543334 68.055557
6.6512108 4.9430523 -1.3536317 68.473686
6.7481246 4.9455004 -1.3533125 67.4375
6.8441248 4.9403124 -1.3535001 67.0625
6.9462147 4.9572859 -1.3539287 68
7.0445833 4.953084 -1.3530834 69.083336
7.1517272 4.9528184 -1.3527273 67.818184
7.2515001 4.9534998 -1.3537 68
7.3501816 4.9522729 -1.3534546 69.272728
7.4514999 4.9473004 -1.3528999 68.300003
7.5458002 4.9418001 -1.353 67.900002
7.6417499 4.9431252 -1.3536251 68.125
7.7475376 4.9404616 -1.3536924 70.615387
7.8472004 4.9435334 -1.3512002 67.733337
7.9498181 4.9462724 -1.3526363 64
8.056777 4.9348888 -1.3554446 64
8.1543999 4.9422002 -1.3558999 66.599998
8.2442722 4.9559097 -1.3549999 67.181824
8.3463011 4.9628 -1.354 68.900002
8.4414005 4.9478002 -1.3520001 67.300003
8.5477791 4.9446664 -1.3514445 67.555557
8.6483335 4.9321113 -1.3502223 69.555557
8.7478571 4.9374285 -1.350143 70.14286
8.8500004 4.9488578 -1.3507143 70.857147
8.940999 4.9724998 -1.351 71.375
9.0509996 4.9677782 -1.3514445 71.111115
9.1555004 4.9645004 -1.3521669 71.166672
9.2466249 4.9613752 -1.352625 71.875
9.3500004 4.9563746 -1.352 72.875
9.4532213 4.9435554 -1.3513333 72.333336
9.5557146 4.9432859 -1.3515716 70.857147
9.651 4.9385004 -1.3521669 70
9.7464285 4.9334288 -1.353 70.285721
9.8393345 4.9418335 -1.353 70.666672
9.9519997 4.9512501 -1.354 71.5
10.059751 4.9579997 -1.353 72
10.144334 4.9676666 -1.3523334 71.333336
10.240429 4.9591427 -1.3527143 70.285721
10.348499 4.9553752 -1.3529999 69.375
10.454501 4.949667 -1.3536667 68.833336
10.549 4.9458332 -1.3535001 69.666672
10.645857 4.9425721 -1.3527143 69.571434
10.752001 4.9589996 -1.352 67
10.8525 4.9475002 -1.352 66
10.960667 4.9390001 -1.3510001 66
11.050001 4.9720001 -1.351 65.400002
11.141001 4.9696002 -1.3513999 66.200005
11.2395 4.9879999 -1.35 67
-6.7463551 5.0409851 -1.3267096 162.88708
-6.660552 5.0636544 -1.3476208 116.37931
-6.5544548 5.0494547 -1.3543638 90.36364
-6.4572854 5.0499291 -1.3542143 84.428574
-6.351923 5.0415387 -1.3544616 79.692314
-6.2532144 5.0551434 -1.3543572 77.5
-6.151062 5.0469379 -1.3540626 76.625
-6.0476103 5.0573335 -1.3543334 76.166664
-5.9494495 5.05445 -1.35435 76.700005
-5.850421 5.0568423 -1.3547367 76.263161
-5.7498002 5.0526996 -1.3545499 75.300003
-5.6526666 5.0414996 -1.3535557 76.722221
-5.5533047 5.0433483 -1.3540001 81.739136
-5.4514279 5.0431905 -1.3550949 76.428574
-5.3489528 5.0402379 -1.3549998 73.095238
-5.2510457 5.040091 -1.3554996 77.5
-5.1480002 5.0461364 -1.3559542 80.5
-5.0503907 5.0598698 -1.3562173 85.434784
-4.9530001 5.0566816 -1.3570004 91
-4.8515835 5.0494585 -1.3570002 93.541672
-4.7499127 5.0421305 -1.3570004 95.95652
-4.647759 5.0487933 -1.3569999 97.551727
-4.5518394 5.0543599 -1.3571602 97.799995
-4.4519172 5.0474586 -1.3572502 95.875
-4.3477583 5.0466213 -1.3578277 95.931038
-4.252367 5.0487337 -1.3580004 93.100006
-4.1497593 5.0485997 -1.3577201 93
-4.0488124 5.0452824 -1.3579065 92.5625
-3.9545522 5.0488281 -1.3581381 91.862068
-3.8496971 5.0510006 -1.3580914 90.424248
-3.7525001 5.0502505 -1.3581073 88.857147
-3.6495147 5.0468569 -1.3575144 88.628571
-3.5505152 5.0508785 -1.3573945 87.848488
-3.4540832 5.0451112 -1.357083 88.666664
-3.3504996 5.0489168 -1.3573053 88.277779
-3.2475407 5.0511355 -1.3569996 86.432434
-3.1478331 5.0496116 -1.3569996 84.888893
-3.0496001 5.0493503 -1.3567494 82.950005
-2.9511318 5.0484214 -1.3561046 80.894737
-2.8515005 5.0475011 -1.3560706 80.785713
-2.7499559 5.0500655 -1.3559992 81.044449
-2.6511109 5.0482435 -1.3559327 79.977783
-2.5519779 5.0491772 -1.3550441 79.466667
-2.4487498 5.0500908 -1.3544772 76.386368
-2.3489385 5.0510001 -1.3545916 74.795914
-2.2495317 5.0479999 -1.3552123 73
-2.1498961 5.0510211 -1.3561243 75.541672
-2.0500998 5.0502996 -1.3564996 72
-1.9480199 5.0491805 -1.3564194 75.199997
-1.8492246 5.0499187 -1.3566117 78.061226
-1.7491295 5.0489998 -1.3571668 84.870369
-1.6496224 5.0485482 -1.3572642 87
-1.5503999 5.049819 -1.3572181 86.781815
-1.4501963 5.0481577 -1.357039 89.098045
-1.3502322 5.0486069 -1.356982 91.196434
-1.2494999 5.0498033 -1.3569999 94.321434
-1.150537 5.0501122 -1.3569998 94.277779
-1.0511355 5.0491867 -1.3565931 93.067795
-0.95046681 5.0499506 -1.3559334 89.416672
-0.8501935 5.0482731 -1.3553712 84.370964
-0.7488361 5.0492778 -1.3550168 82.540977
-0.65059322 5.0488648 -1.354288 84.423729
-0.5497418 5.0482254 -1.3539829 89.483871
-0.44750002 5.052289 -1.3535148 102.07576
-0.3576096 5.0431824 -1.3381333 100.8762
-0.24737498 5.0690413 -1.3394167 76.375
-0.14752086 5.048666 -1.3493543 82.395836
-0.053127658 5.0486379 -1.3541278 83.829788
0.041963629 5.0503454 -1.3567456 80.981819
0.11974999 5.0479999 -1.3553569 88.89286
1.1643947 5.0478683 -1.3569733 76.736839
1.2490678 5.0478477 -1.3567964 78.372879
1.3510174 5.0507364 -1.3568946 83.508774
1.4507896 5.0478067 -1.3570174 83.947372
1.551393 5.0480003 -1.3569285 83.857147
1.6508909 5.0511451 -1.3566724 85.181816
1.7482857 5.0486078 -1.356607 86.232147
1.8493521 5.0502229 -1.3562034 81.148148
1.9488398 5.0496802 -1.3561995 78.599998
2.0490196 5.0478244 -1.3560388 79.254906
2.1496665 5.0500836 -1.3556246 79.229172
2.2478447 5.0493112 -1.3554884 80.222221
2.3502443 5.0468888 -1.3555329 77.155556
2.4488411 5.0501819 -1.3560448 77.204544
2.550209 5.0502315 -1.3561622 78.372093
2.6507275 5.0471358 -1.3564994 80.136368
2.7493412 5.0497727 -1.3560675 80.86364
2.8503044 5.0498047 -1.3553039 78.652176
2.9504285 5.0475001 -1.3546903 76.285713
3.0463903 5.0479994 -1.3543414 75.170731
3.1474884 5.0480933 -1.3543023 75.976746
3.2489231 5.0466156 -1.3543077 77.410255
3.3475528 5.0537376 -1.3542105 76.342102
3.4494319 5.049974 -1.354 75.243248
3.55006 5.0480003 -1.3540605 74.818184
3.6432576 5.0516124 -1.3544515 74.451614
3.7475951 5.0471358 -1.3547025 73.405411
3.8482413 5.0471034 -1.3542069 73.310341
3.9478002 5.0489712 -1.354 72.371429
4.0461335 5.0524669 -1.3540001 72.166672
4.1501613 5.0455809 -1.3537742 71.322578
4.2448964 5.0479999 -1.353862 71.034485
4.3512006 5.0518007 -1.3534801 71.879997
4.4508333 5.0498009 -1.3535336 71.900002
4.5449996 5.0454073 -1.3532594 73.222221
4.6507506 5.0504165 -1.3529586 71.583336
4.7514 5.0521998 -1.3529201 69.760002
4.8483467 5.0450387 -1.3525771 70.269234
4.9494348 5.0413046 -1.3519998 72.04348
5.0496368 5.0482731 -1.3525455 71.5
5.1482501 5.0538001 -1.3527502 69.099998
5.2474351 5.0599132 -1.3531742 68.478264
5.3473492 5.0426502 -1.35395 68.050003
5.4488997 5.0430007 -1.3541001 68.400002
5.551333 5.0481911 -1.3549521 67.952385
5.6503692 5.0505261 -1.3551577 68.578949
5.7481909 5.0537624 -1.3545713 67.523811
5.849421 5.0583158 -1.3545263 66.157898
5.9469004 5.05475 -1.3536001 67.900002
6.0478415 5.0596318 -1.3535264 68.421051
6.1436152 5.0483079 -1.3541539 65.769234
6.2477694 5.0504622 -1.3547691 65.076927
6.3450713 5.0504289 -1.3544285 65.928574
6.4436369 5.0479093 -1.3541819 67.636368
6.5453329 5.0495 -1.35425 68.916672
6.6450772 5.0449233 -1.3534615 68.692307
6.7529092 5.0441818 -1.3531818 67.818184
6.8529177 5.0437498 -1.3533334 69.083336
6.9555392 5.053154 -1.3523846 71.538467
7.0491996 5.0502667 -1.3516001 71.200005
7.1528463 5.0440769 -1.3515385 69.769234
7.2478571 5.0567856 -1.3520714 68.857147
7.3444295 5.0420718 -1.352143 69.928574
7.4527693 5.0509233 -1.3526154 68.615387
7.5462999 5.0456996 -1.3537999 68.400002
7.6563749 5.0469375 -1.3531251 69.5
7.7536678 5.0432 -1.3513333 68.53334
7.8551102 5.0608888 -1.3506666 64.888893
7.9553752 5.0630002 -1.353125 62.875
8.0536671 5.0482507 -1.3559167 64.583336
8.1520996 5.0523 -1.3561 66.300003
8.2474451 5.0674443 -1.3556666 66.888893
8.3500004 5.0638185 -1.3548182 69.090912
8.4517784 5.0479999 -1.3523334 69.111115
8.5522995 5.0416999 -1.3512 67.5
8.652668 5.0343337 -1.3500001 67
8.7545719 5.0284286 -1.3504287 67
8.8464289 5.0411434 -1.3510001 69.14286
8.9594994 5.0492496 -1.3512499 70.75
9.0522003 5.0670004 -1.3512 71.599998
9.1432505 5.0605001 -1.3518751 72
9.2550011 5.0650005 -1.3514286 73.14286
9.3438749 5.0591249 -1.3512499 72.25
9.4422865 5.0511427 -1.3510001 70.14286
9.5513735 5.0555 -1.3516251 68.625
9.6503334 5.0536671 -1.3526667 69.333336
9.743 5.0476246 -1.352875 70.125
9.8504295 5.0485716 -1.353143 70.571434
9.9525719 5.0377145 -1.353143 71.285721
10.045286 5.037571 -1.3527143 71.714287
10.15075 5.0502501 -1.352 70.25
10.261001 5.0489998 -1.3523334 68.666672
10.360667 5.0496669 -1.353 68.666672
10.451668 5.0456672 -1.3533334 69.333336
10.556666 5.0551667 -1.3531668 68.666672
10.6535 5.0605001 -1.353 68.5
10.746001 5.0548334 -1.3528335 68.5
10.850715 5.0539999 -1.3518573 67.571434
10.953287 5.0351434 -1.3517144 66.428574
11.047 5.0613337 -1.3510001 66.666672
11.141001 5.0540004 -1.3510001 66
11.241333 5.0480003 -1.3496666 66
11.339 5.0406666 -1.3486667 65.333336
-6.6442227 5.1372962 -1.3247038 152.09259
-6.5670009 5.1611104 -1.3414168 120.11111
-6.4488235 5.1438236 -1.354 91.294121
-6.3512359 5.1415882 -1.3545882 84.529411
-6.2534375 5.1465626 -1.3547498 80.375
-6.1533756 5.1389995 -1.3546873 78.625
-6.0515718 5.1517138 -1.3542143 76.571434
-5.9491544 5.1518464 -1.3543845 77.307693
-5.8476 5.1517339 -1.3547332 77.26667
-5.7502494 5.1605506 -1.3544999 77.150002
-5.6468568 5.1542859 -1.3541429 76.809525
-5.547843 5.1479468 -1.3545789 77.210526
-5.4522271 5.1490002 -1.3556815 75.590912
-5.3477144 5.1420002 -1.3555235 76.190475
-5.2466669 5.1425242 -1.3559043 77.14286
-5.152524 5.1442852 -1.3561428 80.523811
-5.0524764 5.160428 -1.356524 84.523811
-4.9493752 5.1511669 -1.3563751 91.708336
-4.8474784 5.1456528 -1.3571306 94.521744
-4.74476 5.1444001 -1.35712 94.599998
-4.6544166 5.1550002 -1.357625 95.791672
-4.5520401 5.1500797 -1.3578399 95.400002
-4.4487915 5.1434588 -1.3577917 96.541672
-4.3525805 5.1482577 -1.3579681 97.225807
-4.2487197 5.1487999 -1.3587197 96.839996
-4.1460667 5.1492 -1.3592668 95.833336
-4.0536537 5.1498461 -1.3590384 94.269234
-3.9504189 5.1489997 -1.3588066 92.225807
-3.8568215 5.1473217 -1.3584287 90.250008
-3.752743 5.148314 -1.3588288 90.914284
-3.651633 5.1473665 -1.3581337 90.600006
-3.5565157 5.1482577 -1.3580326 89.580643
-3.4516582 5.1472363 -1.3577634 90
-3.3466287 5.1505427 -1.3576858 88.85714
-3.2496171 5.147882 -1.357353 86.264709
-3.1503849 5.1485391 -1.3569995 85.102562
-3.0491843 5.150816 -1.3563415 83.184212
-2.9509504 5.1471753 -1.3560494 82
-2.8506904 5.1478338 -1.3559992 81.976189
-2.7491219 5.1515613 -1.3559017 82.731705
-2.6485 5.1486659 -1.3552614 81.404762
-2.5489998 5.1491189 -1.3551902 79.880951
-2.4506586 5.1482201 -1.355219 76.048775
-2.3499048 5.1518331 -1.3553329 76.666672
-2.250196 5.1480222 -1.3553908 77.978264
-2.1530626 5.1484375 -1.3558536 78.916672
-2.0497918 5.1501665 -1.3565826 75.8125
-1.9507445 5.1487861 -1.357042 75.510635
-1.8515419 5.1499376 -1.3576045 80
-1.7520615 5.1521211 -1.3579394 88.244896
-1.6504315 5.1497254 -1.3581969 87.509804
-1.5486327 5.1495919 -1.3582659 86.897957
-1.4500588 5.148313 -1.3580009 86.901962
-1.3510754 5.1477175 -1.3574722 90.07547
-1.251148 5.1495552 -1.3570368 93.370369
-1.1499074 5.1473331 -1.3568145 90.888893
-1.0508213 5.1486068 -1.3560535 89.89286
-0.94984204 5.1497536 -1.3556139 84.561401
-0.85033333 5.1491389 -1.3550178 83.368423
-0.75055182 5.149138 -1.354569 82.482758
-0.64940661 5.1487975 -1.3542027 87.18644
-0.54460609 5.1562433 -1.3529092 102.39394
-0.45516518 5.1470275 -1.3378074 96.366966
-0.34907404 5.1499629 -1.3357779 76.037041
-0.24968752 5.1504688 -1.3500626 80.96875
-0.14779547 5.1498866 -1.353591 82.318184
-0.044055551 5.1493144 -1.3573334 79.351852
0.047322568 5.1493869 -1.3606126 79.30645
0.12239999 5.1515594 -1.3566399 84.839996
1.1759999 5.1452918 -1.3570002 82.583336
1.2498395 5.1503572 -1.3566784 83.232147
1.3489997 5.1488523 -1.3565183 85.425926
1.4477037 5.1501665 -1.3562775 87.09259
1.5461891 5.148396 -1.3563771 86.13208
1.6480191 5.1492076 -1.3561696 80.905663
1.7518826 5.1495094 -1.3556466 79.980392
1.8509576 5.1494894 -1.3559779 78.872337
1.9479998 5.149334 -1.3564577 80.229172
2.0491912 5.1494255 -1.3568717 80.659569
2.1487334 5.1507769 -1.356666 78.955559
2.24875 5.1474776 -1.3563404 79.454544
2.3485224 5.1493416 -1.3568631 79.068184
2.4486907 5.1484766 -1.3568329 77.690475
2.5481086 5.1503038 -1.3561081 79.58696
2.6505437 5.1475444 -1.3556733 80.58696
2.7496369 5.149591 -1.3546362 82.159096
2.8477621 5.1496429 -1.3540001 79.952385
2.9472497 5.1482005 -1.3539001 77.599998
3.050658 5.1470003 -1.3538948 76.157898
3.150028 5.1496382 -1.3539722 76.055557
3.2496316 5.1473956 -1.3537896 76.710526
3.3486366 5.1512122 -1.3536972 75.969696
3.4452121 5.1519704 -1.3539697 75.57576
3.5467143 5.1482577 -1.3538858 76.057144
3.6470912 5.1448488 -1.3538789 74.969696
3.7434065 5.1507497 -1.3540001 74.8125
3.8506286 5.1476011 -1.3540287 73.428574
3.9447498 5.1508212 -1.354 72.678574
4.0490327 5.151741 -1.353742 72.80645
4.1454997 5.1497331 -1.353067 71.666672
4.2549319 5.1465516 -1.3537931 71.241379
4.3453598 5.1468 -1.3536799 72.599998
4.4484801 5.1516399 -1.3530802 71.720001
4.5507579 5.1484475 -1.3528279 71.103447
4.6489129 5.1405649 -1.3528697 71
4.7504349 5.1506095 -1.3527391 69.521744
4.8519602 5.1543999 -1.3528402 69.799995
4.9474354 5.1404343 -1.3524349 70.565216
5.048048 5.1451902 -1.3525239 71.714287
5.1470451 5.1525908 -1.3525 71.318184
5.2486501 5.1607008 -1.3529001 69.75
5.349556 5.1375556 -1.3536111 68.055557
5.4493637 5.1427274 -1.3540455 67.772728
5.5493336 5.1513886 -1.3547221 67.055557
5.6474118 5.1527061 -1.3557057 67.058823
5.7506666 5.1463337 -1.3553333 66.833336
5.8489289 5.1488571 -1.3547142 67.071434
5.9471674 5.1496668 -1.3542502 66.666672
6.0517144 5.1543574 -1.3539287 67.928574
6.1522002 5.1416001 -1.3536668 67.600006
6.2464447 5.1401663 -1.3543888 68.111115
6.3497057 5.1481762 -1.3538237 66.411766
6.4522781 5.1414442 -1.3541111 66.888893
6.5523682 5.145421 -1.3532108 68.052635
6.6542501 5.1418123 -1.3529376 68.875
6.7492948 5.1465878 -1.3528236 69
6.8489408 5.1430588 -1.3522352 70.352943
6.9436431 5.1489997 -1.3514285 70.64286
7.0492864 5.1512146 -1.3509287 70.714287
7.1500006 5.148231 -1.351077 71.230774
7.2504005 5.1627002 -1.3515 71
7.3496161 5.1474619 -1.3515385 69.384621
7.4503632 5.1619096 -1.3525455 69.36364
7.5514297 5.1455002 -1.3525001 70.64286
7.6379166 5.1472507 -1.3510835 69.916672
7.7448997 5.1561999 -1.3499001 66.099998
7.8452225 5.1527781 -1.351 64.111115
7.947 5.1615 -1.3527499 64
8.0477781 5.1628885 -1.355 64.666664
8.1478462 5.1591539 -1.3556155 67.92308
8.2510004 5.1621251 -1.3543749 67.5
8.3499994 5.1593337 -1.3544445 67.666664
8.4487276 5.1525459 -1.3527272 68.727272
8.5543747 5.144875 -1.3518752 67.75
8.6494446 5.1364446 -1.3504444 67.777779
8.7487774 5.1345553 -1.3502222 65.888893
8.8572502 5.131875 -1.3508749 67.125
8.9544287 5.1284285 -1.3508571 69.285721
9.0406666 5.1375008 -1.3511666 70.5
9.1438007 5.1394 -1.3512 71.400002
9.2481251 5.1602497 -1.351125 71.5
9.3495007 5.164 -1.3508333 71
9.4401436 5.1637144 -1.3507143 69.571434
9.5482855 5.1697149 -1.3520001 69
9.6508579 5.1624284 -1.353 69.428574
9.7521429 5.1695709 -1.3525716 71.14286
9.8424292 5.1542864 -1.3521429 71.285721
9.9429998 5.1513748 -1.3521252 70.875
10.048716 5.1501436 -1.3515714 69.714287
10.157286 5.141572 -1.3518574 68
10.252167 5.1409998 -1.3523334 67.666672
10.345286 5.1389999 -1.3525714 67.714287
10.449167 5.1335001 -1.3526667 67.333336
10.5444 5.1392002 -1.3528001 67.400002
10.656334 5.1606669 -1.353 67
10.739334 5.1503334 -1.353 67.666672
10.844001 5.1424999 -1.3527501 68.25
10.9574 5.1608 -1.3518 67.599998
11.049666 5.1636667 -1.3510001 67.666672
11.147 5.1482863 -1.350143 66.428574
11.24943 5.1468573 -1.3490001 65.428574
11.348 5.1405997 -1.3488001 63.799999
11.443 5.1284003 -1.3492 62.799999
11.54225 5.1529999 -1.3504999 63.25
11.649 5.1695004 -1.35 64.5
-6.5373464 5.2331629 -1.3267347 146.08163
-6.4665675 5.2659454 -1.3392705 134.35135
-6.3522105 5.2575264 -1.3536317 96.473686
-6.2494998 5.2528887 -1.3541111 87.888893
-6.1530004 5.2515554 -1.3544444 80.5
-6.0533891 5.2457776 -1.3544444 77.5
-5.9517369 5.2420001 -1.3542631 78.052635
-5.8535886 5.2437062 -1.3545882 78.117645
-5.7500772 5.2504621 -1.3546153 76.92308
-5.6518888 5.2601109 -1.3546666 78.111115
-5.5495796 5.2555785 -1.3551577 77.631577
-5.4497619 5.2534761 -1.3558568 77.571426
-5.3495235 5.2481904 -1.3559996 76.285713
-5.2502503 5.2421508 -1.3560498 78.550003
-5.1470914 5.2462273 -1.3564091 81.227272
-5.0511913 5.2595243 -1.3566669 83.380951
-4.9514551 5.2494087 -1.356136 89.227272
-4.8521738 5.2423916 -1.3570437 93.304352
-4.7519202 5.2478399 -1.35764 95.639999
-4.6502171 5.2579131 -1.3582608 96.13044
-4.548667 5.2462087 -1.3585415 93.916672
-4.44875 5.248642 -1.3588929 94.964287
-4.3521667 5.2551665 -1.3589581 93.875
-4.2486153 5.2430005 -1.3591154 96.346161
-4.1530347 5.2513447 -1.3595864 97.758621
-4.0487046 5.2504444 -1.3603705 96.370369
-3.9543214 5.2555366 -1.360536 91.535721
-3.8456006 5.2479339 -1.3593336 90.066673
-3.7527995 5.24752 -1.3589598 92.239998
-3.6546671 5.2456355 -1.3583639 91.515152
-3.5506294 5.2494001 -1.3580005 90.771431
-3.4485669 5.2493 -1.3580004 90.333336
-3.3520286 5.2482853 -1.3580005 88.371429
-3.2529142 5.2491717 -1.3575715 86.914284
-3.1534572 5.2494578 -1.3569996 84.914284
-3.0529428 5.2506566 -1.3563709 81.571426
-2.9525409 5.2492714 -1.3559453 83.027031
-2.8520792 5.2477369 -1.3553679 84.263161
-2.7516503 5.2506499 -1.3553995 83.925003
-2.6503654 5.2493901 -1.3552191 83
-2.5495129 5.2491035 -1.3561276 82.153847
-2.4489026 5.2486095 -1.356292 80.024384
-2.351547 5.250668 -1.3564757 79.880951
-2.2502999 5.2490745 -1.3562497 78
-2.1484349 5.2493691 -1.3559777 78.08696
-2.0495453 5.2493186 -1.3568405 79.477272
-1.9508722 5.2482977 -1.3574679 79.914894
-1.8498083 5.2488942 -1.3578942 86.425529
-1.749617 5.2508941 -1.3584687 87.085106
-1.6496938 5.2501831 -1.3587556 89.285713
-1.5495306 5.2497344 -1.3590003 87.85714
-1.4485099 5.2496929 -1.358572 86.020409
-1.3501836 5.2493873 -1.3580415 89.244896
-1.250608 5.249784 -1.3577654 93.13726
-1.1521155 5.2485194 -1.3570381 88.557693
-1.0506923 5.2496152 -1.356192 86.269234
-0.95054734 5.2508683 -1.3557545 85.962265
-0.85081488 5.2493324 -1.3550001 84.481483
-0.75100011 5.2482786 -1.3544998 84.981483
-0.6473037 5.2519283 -1.3538393 96.946434
-0.55914164 5.2472472 -1.3330177 99.194687
-0.4547222 5.2477221 -1.3332222 75.888893
-0.34973174 5.2523413 -1.3496585 77.268288
-0.25364998 5.2514253 -1.35455 84.650002
-0.14984086 5.2530456 -1.3568408 78.136368
-0.048607867 5.2529612 -1.3567451 83.529411
0.051106062 5.2516208 -1.3576971 83.272728
0.12515385 5.2488074 -1.3551154 84
1.1880834 5.2399173 -1.3565 83.833336
1.2499624 5.2495298 -1.3559054 85.188683
1.3506151 5.2485003 -1.3558074 87.230774
1.4496078 5.2501373 -1.3553135 86.588242
1.5483 5.2483397 -1.3554995 85.559998
1.6474001 5.2491789 -1.3558395 83.259995
1.7474165 5.2496042 -1.3558536 76.583336
1.8495531 5.2490001 -1.3562332 78.361702
1.9499779 5.2486439 -1.3567327 79.222221
2.0499134 5.2498264 -1.3569559 80.478264
2.1508141 5.2496738 -1.3571392 78.302322
2.2498138 5.2488837 -1.3573254 77.930229
2.3501194 5.2490473 -1.3569995 80.285713
2.4508221 5.2491112 -1.3566883 79.155556
2.55 5.2509761 -1.3557376 79.214287
2.6499755 5.249414 -1.3547558 79.609756
2.7495265 5.2482629 -1.354 80.947372
2.849658 5.2495799 -1.3537633 79.289474
2.9511752 5.249526 -1.3532003 77.275002
3.0485673 5.2472973 -1.3531896 75.972977
3.1483431 5.2480283 -1.3536003 76.885712
3.2481761 5.2475886 -1.3530592 76.764709
3.3503239 5.2477055 -1.3532649 75.088234
3.4508824 5.2477069 -1.3537942 75.411766
3.5497811 5.2495937 -1.3538438 74.5625
3.6489675 5.247334 -1.3539667 74.53334
3.7510962 5.247128 -1.3538065 74.709679
3.8475668 5.2490339 -1.3538334 73.633339
3.9548275 5.2535858 -1.3540345 73.275864
4.0476665 5.2492967 -1.3538148 73.074074
4.1528997 5.2542667 -1.353267 72.76667
4.2482085 5.2475839 -1.3532503 72.25
4.3485174 5.2455177 -1.3532761 72.586205
4.4487085 5.2434583 -1.3530002 71.916672
4.5512919 5.2552085 -1.352917 69.583336
4.6461849 5.2445922 -1.3530003 69.481483
4.7470908 5.2486367 -1.3530003 70.36364
4.8492608 5.2577391 -1.3529568 70.521744
4.947 5.2454548 -1.3525909 70.681824
5.048584 5.2438335 -1.3524168 70.541672
5.1529498 5.2527499 -1.3524498 70.5
5.2487502 5.2589507 -1.3527001 69.950005
5.3488994 5.2375498 -1.3532002 68.25
5.4440522 5.2476311 -1.353737 67.684212
5.5470004 5.2557364 -1.3548945 66.789474
5.6524005 5.240334 -1.3559998 66.866669
5.7495446 5.2377729 -1.3558632 67.86364
5.850316 5.2417898 -1.3547894 67.368423
5.9524503 5.2427502 -1.3543999 67.5
6.0511117 5.2463889 -1.3539444 69.055557
6.1488891 5.2505555 -1.3533889 68.5
6.2477646 5.2582932 -1.3542353 69.235298
6.3488884 5.256278 -1.3539445 70.055557
6.4475002 5.2544374 -1.35325 66.75
6.5484171 5.2461672 -1.3527501 66.25
6.6459098 5.2470002 -1.3529091 67.272728
6.7468333 5.2455831 -1.3521669 69.583336
6.8526669 5.2455006 -1.3516667 69.666672
6.9499993 5.2441001 -1.3513 70.400002
7.052 5.2464542 -1.351 70.909096
7.1497278 5.2470913 -1.3506365 71.181824
7.2505007 5.2455001 -1.3500003 70.700005
7.3522997 5.2490001 -1.3505 69.5
7.4520998 5.2500997 -1.3515 70.200005
7.5521007 5.2497001 -1.3503002 68.800003
7.6497993 5.2466002 -1.3498001 64.900002
7.7503343 5.2451115 -1.3505555 64
7.8501253 5.2546253 -1.3516251 64
7.9451108 5.2596664 -1.3525556 64
8.0523996 5.2588 -1.354 65.599998
8.1547499 5.2605 -1.3535 66.375
8.2478895 5.2555556 -1.3535556 66.444443
8.3488884 5.2591109 -1.3536667 65.666664
8.4573336 5.2551107 -1.3535556 66.777779
8.5551014 5.2485003 -1.3521001 67
8.6546249 5.2422504 -1.351375 67.375
8.7528887 5.2407784 -1.3501112 67.666664
8.8525724 5.2335715 -1.3505714 67.428574
8.9466677 5.2355556 -1.3504446 67.888893
9.0525713 5.229857 -1.3508573 68.714287
9.1517496 5.2336249 -1.351 69.375
9.2432003 5.2472 -1.351 69.800003
9.3459997 5.2408004 -1.351 70.200005
9.4569998 5.2397499 -1.3512499 69.25
9.5502501 5.2562504 -1.3514999 69
9.6522503 5.2494998 -1.352 71.25
9.7539997 5.2572498 -1.3517501 71.75
9.8460007 5.2668571 -1.3518573 71.857147
9.9563341 5.2696667 -1.3514999 71.333336
10.046714 5.2612858 -1.3515716 69.857147
10.145858 5.264286 -1.3517145 68.428574
10.247001 5.2600002 -1.3520001 67
10.353857 5.257143 -1.3525714 66.714287
10.456333 5.2596674 -1.3533334 66
10.547668 5.2561669 -1.3536667 66.5
10.651428 5.2575717 -1.3540002 67.571434
10.756834 5.2510004 -1.3535001 68.666672
10.8465 5.2328339 -1.353 68
10.9334 5.2572002 -1.3524002 68.599998
11.04425 5.25425 -1.35075 67.5
11.152667 5.2460003 -1.3486667 68
11.257668 5.2433338 -1.3483334 65.333336
11.363667 5.2410002 -1.3493333 62.666668
