# .PCD v0.7 - Point Cloud Data file format
VERSION 0.7
FIELDS x y z intensity
SIZE 4 4 4 4
TYPE F F F F
COUNT 1 1 1 1
WIDTH 1148
HEIGHT 1
VIEWPOINT 0 0 0 1 0 0 0
POINTS 1148
DATA ascii
0.99053848 9.1404238 -0.65103841 123.69231
0.96704006 9.25348 -0.65104002 121.88
0.94776469 9.3523531 -0.65182358 119.58823
0.93264711 9.4375868 -0.65111762 114.70588
0.92500007 9.5423746 -0.65300006 69.25
0.91100013 9.6508331 -0.64941674 138.5
0.88923538 9.7496471 -0.65064698 153.94118
0.86733341 9.8470421 -0.64875001 135.54167
0.84500003 9.9499998 -0.65368742 156.8125
0.82179159 10.05375 -0.65054166 174.58334
0.79312503 10.179251 -0.64599991 162.625
0.80299997 10.13375 -0.65362501 99.625
0.77933341 10.241067 -0.65046668 110.33334
0.75962508 10.330188 -0.65100002 100.0625
0.74013352 10.426935 -0.65126675 116.33334
0.7153182 10.540318 -0.64904541 178
0.68866676 10.651267 -0.65293336 116.33334
0.66813338 10.751268 -0.65193331 105.60001
0.64699996 10.849286 -0.65335721 175.07144
0.625 10.947358 -0.65035713 125.35715
0.59799999 11.078858 -0.65000004 245.00002
0.60799998 11.0165 -0.65099996 95
0.58050001 11.146573 -0.65114284 96.071434
0.55800009 11.259358 -0.65042859 165.07144
-6.2103333 11.359445 -0.64255553 53.333332
-6.1509256 11.379326 -0.65265006 54.450001
-6.0856004 11.397601 -0.67060006 55.799999
0.54000002 11.333001 -0.65271425 98.571434
-6.1090002 11.4 -0.60399997 54
-6.0450006 11.413869 -0.6455484 55.6129
-5.9499531 11.445582 -0.65011621 57.906975
-5.8570967 11.483033 -0.65780646 97.096771
0.51690483 11.447811 -0.65109515 135.33333
-5.8302498 11.520751 -0.62233329 101.83334
-5.7630262 11.55342 -0.65389478 61.315788
0.49300003 11.568 -0.64885712 230.28572
-5.7145195 11.64364 -0.64899999 53.599998
0.47400001 11.639143 -0.65035713 92.928574
-5.7010002 11.713 -0.616 55
-5.6956663 11.745667 -0.65544444 51.277779
0.45023081 11.763231 -0.65153855 159.46155
-5.6921678 11.84761 -0.64872223 51.277779
0.43000007 11.843431 -0.64814293 90.428574
-5.7059999 11.99 -0.65200001 52
-5.6943336 11.939334 -0.66333342 51.444447
0.391 11.998833 -0.65649998 61.166668
0.41078576 11.932002 -0.65064287 161
-5.7301002 12.071401 -0.64690006 119.7
0.38028571 12.080858 -0.64885724 60.428574
-5.7393336 12.155778 -0.65566665 100.33334
0.366 12.17843 -0.65271425 82
-5.7525558 12.241333 -0.64822227 111.66666
-5.7703996 12.348101 -0.65450001 99.200005
-5.8065 12.483 -0.62650001 203.5
-5.7921667 12.445002 -0.65366673 115.16667
-5.8111 12.5461 -0.6322 94.5
-5.7954998 12.5415 -0.68550003 53.5
-5.8378005 12.675 -0.65020001 54.200001
-6.2441435 13.673142 -0.65166658 238.61905
-6.1581483 13.690855 -0.6492964 234.2963
-6.1040001 13.7026 -0.648 238.40001
-6.0469227 13.715615 -0.65007699 234.30769
-5.9534998 13.73673 -0.65023088 224.19232
-5.8514671 13.759466 -0.6492812 228.71875
-5.7482233 13.781962 -0.65144449 237.11111
-5.6835003 13.795299 -0.65380001 242.90001
-5.6375618 13.804126 -0.64856249 240.9375
-5.553967 13.822033 -0.64875007 236.28125
-5.4511113 13.842961 -0.65137035 243.96297
-5.3483543 13.861933 -0.65167743 248.70967
-5.2476296 13.882407 -0.65085191 247.44444
-5.1809998 13.896667 -0.65116668 238.16667
-5.1346679 13.905603 -0.65233332 232.13335
-5.0515752 13.920032 -0.651788 229
-4.9488149 13.938478 -0.6510371 235.25926
-4.8468485 13.959183 -0.65254557 239.18182
-4.7451477 13.98104 -0.65129626 249.55556
-4.6832004 13.994499 -0.65009999 248.60001
-4.62919 14.006335 -0.65033329 247.7619
-4.5459995 14.024183 -0.65218508 226.2963
-4.4464684 14.044809 -0.65203124 240.65625
-4.3484068 14.065335 -0.65022224 252.77779
-4.2457814 14.086408 -0.64984375 251.53125
-4.1828337 14.099001 -0.65133339 253.5
-4.1357141 14.108572 -0.65047622 251.85715
-4.0453639 14.126546 -0.65018183 249.8788
-3.9442229 14.146558 -0.65003699 229.88889
-3.8455935 14.166688 -0.65106255 234.84375
-3.7463334 14.186667 -0.65048146 239.51852
-3.6930001 14.1972 -0.65100008 235
-3.6394229 14.208616 -0.65080768 233.61539
-3.5486667 14.226997 -0.65170372 226.22223
-3.4503241 14.249209 -0.65023535 208.79411
-3.3509636 14.272187 -0.65037042 212.66667
-3.2653749 14.291083 -0.64670837 236.625
-3.2128892 14.302222 -0.6606667 231.66667
-3.1504822 14.315223 -0.65170366 232.2963
-3.0522819 14.336187 -0.65106243 240.71875
-2.9533329 14.355517 -0.65211117 240.55556
-2.8556566 14.373968 -0.65065616 226.40625
-2.7600403 14.392081 -0.64707989 230.84
-2.7054999 14.403 -0.65650004 228.25
-2.6461787 14.415179 -0.65010715 220.42859
-2.5448127 14.435253 -0.65024996 230.90625
-2.4473336 14.455812 -0.64925927 222.25926
-2.349 14.476843 -0.65043747 231.9375
-2.2669411 14.494296 -0.65100002 235.11765
-2.2226 14.503099 -0.64940006 233.3
-2.1508713 14.517383 -0.6514194 236.25806
-2.0527778 14.537927 -0.65214813 235.25926
-1.9502423 14.560213 -0.65075761 228.9091
-1.849815 14.583037 -0.65151852 227.22223
-1.7920001 14.595716 -0.64114285 227.85715
-1.7400417 14.608044 -0.65266657 240.66667
-1.652846 14.625886 -0.6489231 248.92308
-1.553219 14.646502 -0.65081245 241.03125
-1.4523932 14.666784 -0.65067863 238.21429
-1.350515 14.686696 -0.64978796 216.75758
-1.2869999 14.699 -0.66500002 206
-1.2472309 14.708347 -0.64988476 225.00002
-1.1490625 14.728596 -0.65243751 231.15625
-1.0500741 14.74922 -0.64874071 239.92593
-0.94796973 14.771031 -0.65072733 241.39395
-0.85761899 14.790189 -0.64885706 250.04762
-0.81000006 14.8006 -0.65560001 250
-0.75485182 14.812519 -0.64970362 252.03703
-0.65257591 14.834821 -0.65269691 254.57576
-0.55076915 14.856229 -0.65038455 252.69232
-0.44934368 14.877344 -0.65112489 252.6875
-0.36664703 14.894708 -0.6478824 245.58824
-0.31900004 14.9047 -0.64970005 254.10001
-0.25430772 14.917539 -0.65123081 250.42308
-0.15084375 14.939 -0.65049988 251.40625
-0.047592591 14.960553 -0.65218526 252.18518
0.047062501 14.980375 -0.65058339 239.4375
0.12049999 14.995101 -0.64659995 217.40001
0.16681249 15.004626 -0.65281248 211.25
0.24351999 15.020077 -0.65071988 222.48
0.34719354 15.042037 -0.64980638 234.96773
0.41500002 15.057001 -0.64600003 233
-2.9030001 -58.5895 -0.56199998 90.5
-2.829 -58.594501 -0.54550004 118.5
-2.7550001 -58.584999 -0.54350001 130.5
-2.6430001 -58.561501 -0.55150002 128.5
-2.5309999 -58.540001 -0.56149995 126.5
-2.457 -58.525501 -0.54500002 130.5
-2.3829999 -58.508999 -0.56699997 139
-2.309 -58.495998 -0.54799998 126
-2.2349999 -58.484001 -0.53299999 133
-2.1600001 -58.467999 -0.55299997 135
-2.0613334 -58.450005 -0.54500002 135.33334
-0.90600002 -58.221001 -0.54900002 156
-0.833 -58.206001 -0.54100001 175
2.4445 -55.510498 -0.56200004 65.5
2.5810001 -55.444 -0.55599999 57
2.3575001 -55.109497 -0.54049999 65
2.497 -55.118999 -0.542 78
1.842 -52.275501 -0.56 230
1.9395 -52.2565 -0.54649997 225.5
2.0369999 -52.2365 -0.54000002 225.5
2.1256666 -52.23933 -0.54433334 169.33334
1.77 -52.109001 -0.54699999 69.5
1.6773334 -51.939339 -0.5406667 138
-0.68099999 -40.444 -0.56950003 71.5
-1.3364999 -40.284 -0.5535 147.5
-1.26025 -40.268749 -0.54025006 112.75
-1.1585 -40.247498 -0.57174999 117
-1.0565 -40.227501 -0.54724997 96.75
-0.95450002 -40.207001 -0.55075002 97.5
-0.727 -40.221001 -0.52699995 74.5
-0.85299999 -40.187 -0.55175 106.25
-0.77700001 -40.172001 -0.53750002 130
-1.993 -39.223 -0.50700003 55
-1.9910001 -39.193001 -0.55599999 55
-2.0320001 -39.023998 -0.54149997 59.5
-2.0715001 -38.845497 -0.5485 59.5
-1.8895 -34.612499 -0.54100001 69.5
-1.925 -34.468002 -0.55000001 70
-2.1588001 -34.314999 -0.54700005 104.4
-2.089 -34.305 -0.54449999 132.5
-1.961 -34.334 -0.5575 80
-2.0273998 -34.291 -0.55820006 137.8
-2.211 -34.188499 -0.56449997 73.5
-2.2473333 -34.081337 -0.55400002 67
-2.279 -33.916 -0.55433333 96.333336
-2.3110001 -33.752998 -0.53999996 111.5
-2.342 -33.588501 -0.54700005 88
-2.3729999 -33.424999 -0.55299997 164.5
-2.404 -33.262001 -0.55849999 95
1.0483 -21.409702 -0.55360001 106.4
1.1416001 -21.392134 -0.54919994 92.26667
1.2479231 -21.373075 -0.54676932 122.46154
1.319 -21.379 -0.52399999 98
6.5640001 -21.0446 -0.52960002 79.200005
6.6506667 -21.007 -0.56666672 96.333336
6.8520002 -21.000999 -0.50800002 85
6.677 -20.997999 -0.58099997 86
6.756 -20.995251 -0.54725003 98.5
6.8299999 -20.991001 -0.53866667 94
5.9578886 -20.422556 -0.53355557 103.66666
6.0676665 -20.406002 -0.54100001 111.66667
6.0421996 -20.395802 -0.52260005 188.40001
6.1584997 -20.382999 -0.51625001 142
6.2519999 -20.368 -0.51700002 126
6.381 -20.334 -0.51899999 100
6.452333 -20.322001 -0.51983339 106.5
6.5333328 -20.310667 -0.52266669 124
6.8161426 -20.234144 -0.54942864 180.71429
6.8196669 -20.125668 -0.56066668 92.333336
6.9819999 -20.105 -0.51800001 76
6.8353338 -20.047001 -0.52400005 96.166672
6.9190001 -20.003 -0.50800002 73
6.8284998 -19.9855 -0.55550003 74.5
6.7870002 -19.864 -0.54100001 71
6.757 -19.7775 -0.57800001 72
6.6620002 -19.261999 -0.51499999 66
0.99800003 -16.514999 -0.50400001 55
0.99599999 -16.48225 -0.55474997 55
1.013 -16.420401 -0.54720002 55.799999
1.0445 -16.344749 -0.54700005 65.916672
1.11 -16.322001 -0.50199997 74
1.078625 -16.275875 -0.56525004 57.5
1.12225 -16.226917 -0.54208338 58.916668
1.16675 -16.18025 -0.55650002 63.916668
1.2445198 -16.131838 -0.54583997 75.879997
1.319 -16.105 -0.51300001 86
1.29275 -16.092501 -0.58324999 75.75
1.3604349 -16.071262 -0.55360866 80.347824
1.4552801 -16.034641 -0.55331993 83.919998
1.5449376 -16.015999 -0.53512502 87.875
1.63025 -16.0065 -0.51050001 97.75
1.5708889 -15.993112 -0.57911104 109
1.6582382 -15.983953 -0.55714291 112.76191
1.7535197 -15.971201 -0.55079991 125.36
1.85312 -15.953879 -0.55232006 166.84
1.9523597 -15.93352 -0.55084002 165.72
2.0495832 -15.912374 -0.54716676 190.41667
2.1110001 -15.903 -0.51499999 190.5
2.0899999 -15.9 -0.58200002 214
2.1518185 -15.889862 -0.55413634 204.18182
2.24876 -15.86908 -0.55188 207.95999
2.3474 -15.848119 -0.54975992 209.75999
2.444375 -15.827625 -0.55183333 213
2.5369501 -15.809352 -0.54409999 215.75
5.6394997 -15.8525 -0.52950001 79
0.47499999 -15.729001 -0.55840003 72.200005
2.5758002 -15.7978 -0.57300001 225.2
2.6431997 -15.786718 -0.55220002 212.31999
2.7416 -15.765919 -0.55091995 182.75999
2.8465362 -15.744501 -0.55403572 132.75
2.9544814 -15.725186 -0.5474444 195.22223
3.0495784 -15.708527 -0.54536837 231.68422
5.7130003 -15.7445 -0.52950001 98
0.45199999 -15.610201 -0.55120003 68
3.0829999 -15.696667 -0.57683331 216.5
3.1563201 -15.686199 -0.55135995 197.15999
3.2551994 -15.667878 -0.55107999 183.64
3.3539999 -15.649519 -0.55191994 176.36
3.4531593 -15.63192 -0.54999995 164.28
3.5507505 -15.615294 -0.54695845 156.20834
3.6422222 -15.605779 -0.52866673 113.22222
3.7043333 -15.645 -0.53800005 226.33334
5.7473335 -15.635333 -0.54416668 67.333336
5.8319998 -15.633286 -0.53828573 59.000004
3.5899999 -15.6 -0.59399998 215
3.6492312 -15.593616 -0.56969237 180.53847
3.7508798 -15.579599 -0.5521999 123.16
3.8506 -15.563278 -0.55148 93.639999
3.9483461 -15.54581 -0.55188453 78.038467
4.0480008 -15.532783 -0.54652178 72.13044
4.1506109 -15.528944 -0.53722221 70.444443
4.2010002 -15.547 -0.50099999 77
5.7630005 -15.596667 -0.54266667 65.666672
5.8239999 -15.5972 -0.5478 61.799999
-0.20200001 -15.489 -0.54680002 130
-0.14453849 -15.479041 -0.5493077 141.61539
-0.05177778 -15.462183 -0.55096298 112.51852
0.049645159 -15.44313 -0.55009675 90.870964
0.15569229 -15.42169 -0.55165392 85.807693
0.23418753 -15.405001 -0.5538125 85.9375
0.42899999 -15.499001 -0.54280001 68.200005
4.0714998 -15.4925 -0.59500003 83.5
4.14575 -15.48825 -0.58824998 74.5
4.2449999 -15.478 -0.59299999 65
0.28150007 -15.395001 -0.54649997 86.200005
0.34861538 -15.380002 -0.55042309 90.42308
0.40700004 -15.395999 -0.55440009 71
5.9590001 -15.106 -0.514 58
5.4650002 -15.003 -0.537 57
5.9299998 -15.087 -0.50800002 55
5.3639998 -14.96 -0.53799999 53
5.4668002 -14.9368 -0.54540002 65.400002
5.4729996 -14.887833 -0.57150006 85.333336
5.5148335 -14.876667 -0.56383336 75.666672
4.9505 -14.14 -0.53249997 122.75
4.9273338 -14.073001 -0.55200005 109.33334
4.9780002 -13.936 -0.55299997 74
5.0255008 -13.959299 -0.5399 81.800003
3.7670002 -13.8385 -0.50650001 51.5
4.96 -13.885 -0.56900001 84
3.7910001 -13.721499 -0.5406667 97.833336
3.832 -13.703 -0.59399998 109
3.793 -13.695 -0.51499999 82
3.8508432 -13.670282 -0.55006248 202.28125
3.9249997 -13.637777 -0.55161113 200.77779
4.6859999 -13.603 -0.50599998 105
4.7816668 -13.621666 -0.59200001 144.66667
4.8080001 -13.622 -0.58399999 106
3.9573998 -13.5896 -0.55150002 167.90001
4.9229999 -13.356 -0.59899998 55
4.5699997 -13.2125 -0.57300001 105
4.6270003 -13.216667 -0.53633332 89.333336
4.7789998 -13.274 -0.55299997 81
4.5820003 -13.176333 -0.55700004 101.66667
4.6591334 -13.1412 -0.5515334 133
4.6999998 -13.158 -0.55699998 88
4.5745001 -13.092501 -0.56099999 90.5
5.5366669 -13.034 -0.5126667 101
5.5165 -12.9265 -0.51750004 92.5
5.494 -12.827499 -0.5165 85.5
3.7732501 -12.73275 -0.52999997 55.375
5.4749999 -12.741 -0.509 94
3.7672858 -12.669001 -0.54657143 52.714287
5.4549999 -12.664001 -0.51899999 90.666672
5.4330006 -12.533999 -0.52683336 102.83334
5.4153337 -12.428667 -0.52733338 102
5.3964996 -12.344 -0.51849997 104.5
5.4039998 -12.36 -0.54400003 96
5.3815002 -12.26625 -0.53649998 100.75
5.3566003 -12.151799 -0.54949999 110.6
5.3318748 -12.040126 -0.5575 142.875
5.1350002 -11.907 -0.50999999 88
5.3080006 -11.9355 -0.55416667 147
3.513 -11.814 -0.55699998 55
5.0812006 -11.832001 -0.52340001 89.200005
5.1350002 -11.838888 -0.5356667 89.333336
5.2923336 -11.860667 -0.55400002 149
3.5079999 -11.742 -0.55599999 52
4.8955002 -11.735 -0.52450001 82
4.9235001 -11.714875 -0.51787502 116.125
5.0594997 -11.743 -0.55537498 88.75
5.1285005 -11.746301 -0.57600003 92.099998
5.2727499 -11.756418 -0.55516672 124.83334
4.9575334 -11.6814 -0.53600001 109.00001
5.0368752 -11.669751 -0.57975 90.25
5.2485003 -11.644333 -0.55483335 106.33334
3.4430001 -11.524 -0.56099999 50
5.2273002 -11.5427 -0.56169999 107.2
3.4385624 -11.435438 -0.54093748 51.625
3.556833 -11.434694 -0.55416662 113.63889
3.6235628 -11.431999 -0.55737495 98.625
3.7411666 -11.416499 -0.5176667 103.83334
3.8215001 -11.432651 -0.54859996 182.10001
3.9233336 -11.450999 -0.57733339 53.333336
5.2081251 -11.44875 -0.54712498 111.875
3.4660001 -11.388391 -0.55556524 54.869568
3.533 -11.3955 -0.51475 126.75
3.6532276 -11.344592 -0.551 60.318184
3.7363081 -11.360345 -0.5533846 66.730774
3.8396926 -11.356231 -0.55692309 55.92308
5.1872001 -11.3405 -0.54839998 118.9
3.6411998 -11.278501 -0.56400001 64
3.796 -11.248 -0.565 50
3.8274617 -11.269693 -0.53976929 50.615387
5.1704445 -11.252001 -0.55588895 119
5.1478567 -11.139215 -0.54871428 114.85715
4.6193333 -11.014667 -0.52033341 63.666668
5.1265712 -11.03843 -0.54971427 116.71429
4.6863337 -10.942667 -0.54333335 59.666668
4.717 -10.938 -0.58899999 71
5.099 -10.907499 -0.58850002 123
5.1079993 -10.947582 -0.54400003 118.16667
4.6648574 -10.87643 -0.57714289 58.57143
5.0865717 -10.84543 -0.55028576 121.71429
5.0672145 -10.751215 -0.551 123.85715
5.0482855 -10.659 -0.551 117.71429
3.8150001 -10.5755 -0.51250005 54.5
4.0839996 -10.5655 -0.50599998 63.5
5.0282145 -10.565288 -0.55057144 116.07143
3.9000001 -10.421 -0.57700002 51
4.9975719 -10.416286 -0.55028576 113.57143
5.0091429 -10.474286 -0.55014288 113.28572
3.8691111 -10.348444 -0.54344445 56.611111
4.3816667 -10.339001 -0.51233339 73.666672
4.9807854 -10.330858 -0.55178571 115.00001
4.9650002 -10.249572 -0.55299997 117.57143
3.8482859 -10.120716 -0.51935714 56.14286
4.9494295 -10.168143 -0.55335724 116.35715
3.8468573 -10.070716 -0.56535721 58.57143
3.9070001 -10.014 -0.58899999 80
4.2557144 -10.046857 -0.59200001 59.714287
4.9259996 -10.055643 -0.55428576 122.42857
3.8593714 -9.956913 -0.54599994 74.314285
3.9315181 -9.9365921 -0.56433338 98.629631
4.0453334 -9.9421673 -0.5801667 77
4.8970003 -9.9172859 -0.55400008 133.57144
4.9080005 -9.971715 -0.55500001 125.14286
-0.74343759 -9.8535004 -0.54512501 96.1875
3.888833 -9.8765011 -0.52100003 121.33334
3.9521055 -9.8541851 -0.5466578 77.421051
4.0280905 -9.8272734 -0.57454538 64.727272
4.8800721 -9.836071 -0.55428576 149.07144
-0.76599997 -9.7476234 -0.5469166 83.541672
3.9819 -9.7652998 -0.52100003 81.400002
4.0547113 -9.7409811 -0.54419231 70.67308
4.1113334 -9.7020006 -0.52033335 71
4.8571429 -9.7285728 -0.5535714 142.28572
-0.78729415 -9.6353531 -0.5494706 83.058823
4.0866671 -9.6993332 -0.53299999 68.666672
4.1143746 -9.6658745 -0.52937502 63.875
4.8375335 -9.6298008 -0.5510667 137.53334
-0.80833334 -9.5197773 -0.55200005 70.777779
-0.80000007 -9.5647783 -0.55122221 70.666664
4.8209996 -9.5508757 -0.5485 138
-0.82099998 -9.4543886 -0.5511111 71.055557
4.7989998 -9.4484997 -0.50950003 154
4.8055716 -9.4777861 -0.55457145 144.64287
-1.0381666 -9.3329439 -0.5489074 107.96297
-0.95037347 -9.3199568 -0.55122381 92.313431
-0.86268824 -9.3249006 -0.55080324 82.983604
-1.0819999 -9.2558708 -0.55547833 133.95653
-1.1055555 -9.129612 -0.55294448 130.72223
-1.0950001 -9.1858883 -0.55199999 133.55556
-1.1240003 -9.0406294 -0.55374074 133.96297
-1.14572 -8.9423199 -0.55195999 129.23999
-1.1672691 -8.8401546 -0.54773074 127.65385
-1.1872593 -8.7408161 -0.546 129
4.4901109 -8.7312222 -0.55000001 118
4.547123 -8.7200298 -0.55016923 140.93846
-1.2075772 -8.643117 -0.54865378 134.42308
-1.2 -8.6750002 -0.50199997 133
-1.2273332 -8.5519266 -0.54859263 133.14815
-1.2467407 -8.4606304 -0.55051851 131.66667
-1.2685832 -8.3530855 -0.55086118 133.16667
4.2830405 -8.3791189 -0.55031997 111.2
4.4499102 -8.3290901 -0.55032825 124.20895
4.5294757 -8.3138809 -0.55133331 138.4762
-1.2894818 -8.2463694 -0.55140746 132.85185
4.5489998 -8.250555 -0.54888886 150.85185
-1.3068573 -8.1538219 -0.55042863 131.17857
4.5289264 -8.1408892 -0.55003703 145.11111
-1.326475 -8.0517759 -0.54859996 133.875
4.5257707 -8.0530577 -0.55162853 151.48572
-1.3480573 -7.9467139 -0.54602855 133.48572
4.4963336 -7.9176664 -0.58800006 64.666672
4.5022001 -7.9420004 -0.54613334 62.400002
-1.3672572 -7.8548298 -0.55374289 136.08571
4.4622216 -7.835 -0.54977781 68.333336
-1.3880249 -7.755352 -0.55184996 138.25
4.4555283 -7.7662506 -0.55299997 71.222221
-1.4093173 -7.6513429 -0.55263412 138.51219
4.4358149 -7.6538143 -0.55481488 68.037041
-1.4298143 -7.5500212 -0.5504418 138.69768
4.4194655 -7.5602851 -0.55339289 75.357147
-1.4503634 -7.4520903 -0.55063635 136.09091
4.3958507 -7.4439006 -0.55020005 69.150002
4.4029999 -7.488111 -0.5547778 66
-1.4699765 -7.3579774 -0.5518139 139.34883
4.3791728 -7.363378 -0.54962075 68.586205
-1.5010003 -7.2042999 -0.54930007 144.40001
-1.4892786 -7.2623014 -0.55230236 145.04651
4.3590002 -7.2559729 -0.54772222 69.583336
-1.5124 -7.1471748 -0.55012494 145.60001
4.3378148 -7.1491094 -0.54855555 69.59259
-1.5320965 -7.048079 -0.54971153 146.05769
4.32131 -7.0624142 -0.55210352 66.862068
-1.5516385 -6.9500647 -0.54640418 146.21277
4.2909999 -6.9143338 -0.55055553 64.222221
4.304112 -6.9746661 -0.5501852 65.851852
-1.5714726 -6.8501835 -0.54976362 147.78181
4.2783074 -6.8450766 -0.54812831 64.307693
-1.6010001 -6.706286 -0.57099998 146.57144
-1.5912447 -6.7509403 -0.54838777 148.30612
4.2595329 -6.7497339 -0.54736674 65
-1.6128273 -6.6446209 -0.55006903 153.27586
4.2420998 -6.6568999 -0.54802507 62.450001
-1.6332002 -6.5498838 -0.55035007 153.55
4.2228999 -6.5538492 -0.55034995 60.075001
-1.6538002 -6.451571 -0.55498469 154.44615
4.1962776 -6.4226098 -0.5561111 58.888889
4.2100906 -6.4777274 -0.54836369 66.136368
-1.6747682 -6.3504214 -0.55008709 155.66667
4.185122 -6.3534627 -0.55112183 65.31707
-1.7034348 -6.2120013 -0.54847825 155.47826
-1.6924164 -6.2648535 -0.54770845 134.95834
4.166163 -6.2561398 -0.55013961 61.465115
-1.7155833 -6.1505823 -0.54950005 96.983337
4.1458626 -6.1529627 -0.54835296 62.509808
-1.734972 -6.0572386 -0.55050009 130.33333
4.1253338 -6.049417 -0.55429161 63.166668
-1.755549 -5.9551983 -0.54945129 155.70731
4.1073833 -5.9469986 -0.55159992 64.418182
-1.7762767 -5.8495955 -0.55134487 159.24138
4.0863271 -5.8456082 -0.55069566 64.065216
-1.8029997 -5.7085385 -0.55338466 159.38463
-1.7941194 -5.7554178 -0.55195522 158.3582
4.0676951 -5.7496614 -0.55040681 62.728813
-1.8148968 -5.6481838 -0.55058753 161.8866
4.0482354 -5.6462722 -0.54889089 63.109089
-1.8359785 -5.5454068 -0.55014288 162.58243
4.0302534 -5.5473976 -0.551 63.527271
-1.8565311 -5.4455137 -0.54963553 163.29167
4.0112453 -5.455512 -0.55033326 68.155556
-1.8762854 -5.3497458 -0.55116343 165.55101
3.9822104 -5.3453946 -0.54846478 80.929573
4.0023632 -5.3097281 -0.55027276 76.818184
-1.9034319 -5.2164111 -0.5500229 169.93182
-1.8927178 -5.2688184 -0.5520702 168.11267
3.9822204 -5.2375374 -0.55143148 88.305267
-1.9180895 -5.1463032 -0.54954034 172.9292
3.9619675 -5.1219339 -0.55167741 72.725807
4.0623159 -5.1618767 -0.55020398 153.83673
4.1499615 -5.14539 -0.54993749 153.42969
4.249578 -5.1264853 -0.54984915 151.89684
4.3207254 -5.1137452 -0.5523333 152.45099
-1.9393523 -5.0456805 -0.55047417 177.18103
4.359076 -5.0715528 -0.54951423 144.61905
4.4490771 -5.052691 -0.55055547 152.52992
4.547236 -5.0339742 -0.55025208 150.86555
4.648138 -5.0145497 -0.54959333 150.58475
4.7111115 -5.0029626 -0.55329633 152.96297
-1.9595991 -4.9506564 -0.55133313 175.44168
4.7593293 -4.9934235 -0.54981178 149.92941
4.8474255 -4.9767613 -0.55107075 149.48672
4.9506507 -4.9571896 -0.55102682 147.3125
5.0510578 -4.9384413 -0.54993147 146.84314
5.1517873 -4.9304037 -0.55051678 130.8427
5.248456 -4.9153166 -0.55088121 130.43564
5.3181725 -4.9033108 -0.55675864 112.55173
-1.9806738 -4.8517842 -0.54883718 177.83704
5.3566322 -4.8671851 -0.54590291 93.660194
5.4696674 -4.8744674 -0.52940005 109.00001
5.5288887 -4.863833 -0.51555556 86.5
-2.0066714 -4.7274084 -0.55142093 175.55263
-1.9964504 -4.7782159 -0.55006671 178.33334
5.349 -4.8000002 -0.56599998 50
-2.0222707 -4.6499171 -0.55091673 177.25
-2.041352 -4.5519571 -0.54978585 178.55
5.1279998 -4.5669999 -0.52899998 50
-2.0611238 -4.4530215 -0.55063969 184.15529
-2.0831046 -4.3505149 -0.55006081 188.09946
-2.1081111 -4.2364969 -0.55028582 195.35295
-2.0980406 -4.2826118 -0.55079579 191.69388
-2.1269114 -4.1554527 -0.54998386 194.5215
4.5586758 -4.1195884 -0.55920589 53.35294
-4.6337276 -4.0066361 -0.51181811 108.45455
4.4951997 -4.0094004 -0.56040001 51.400002
4.5388441 -4.0547404 -0.55828583 51.740261
4.6584997 -4.06075 -0.58750004 57
-4.548667 -3.9882228 -0.51640749 131.88889
-4.4467435 -3.9671159 -0.52337223 142.6279
-4.3450947 -3.9453592 -0.5297547 146.64151
-4.2483864 -3.9254336 -0.53549266 151.08955
-4.1665525 -3.9079466 -0.54128575 156.5
4.4748778 -3.9452653 -0.53748977 51.346939
4.529882 -3.9677062 -0.57623535 51.882355
-4.1173439 -3.897656 -0.54000002 163.3793
-4.050457 -3.8834777 -0.55013353 162.84763
-3.9500437 -3.8618255 -0.55049533 171.3826
-3.8508015 -3.8409476 -0.55045706 174.61208
-3.7486944 -3.8198206 -0.55047011 176.68657
-3.6739473 -3.8045702 -0.54703575 174.37502
-1.9948529 -3.8142774 -0.54870367 141.83333
4.4458337 -3.8517363 -0.53665274 51.416668
4.5207229 -3.8765557 -0.57983333 52.777779
-3.6286712 -3.7951889 -0.5541876 175.5625
-3.554462 -3.780015 -0.55039704 177.36765
-3.4501355 -3.758461 -0.55059761 178.87662
-3.3490119 -3.7368155 -0.55009937 179.68085
-3.2509806 -3.7154517 -0.55072963 183.08176
-3.1907928 -3.7023792 -0.54693109 184.44827
-2.0085874 -3.7420983 -0.55046993 117.04918
-1.9988058 -3.7927775 -0.54963887 134.58333
4.3711853 -3.7228148 -0.5796296 53.777779
4.4177871 -3.7564909 -0.52895087 51.262291
-4.3330002 -3.608 -0.54500002 50
-3.1417148 -3.6917977 -0.55186462 187.93985
-3.0493114 -3.6719565 -0.55051672 186.88333
-2.9466441 -3.6499236 -0.55042177 186.58919
-2.8465824 -3.6272528 -0.54999465 185.99471
-2.7884998 -3.6139107 -0.5502941 185.9706
-2.0269613 -3.6498742 -0.55070782 88.09465
4.374507 -3.6460409 -0.55712342 52.09589
4.4160433 -3.6378696 -0.55608702 51.869568
-4.6802497 -3.5925 -0.55925 51.5
-4.5176668 -3.5710001 -0.56733334 55.666668
-4.4462671 -3.5643332 -0.57273334 56.666668
-4.3426919 -3.5662119 -0.57175004 55.250004
-4.2501836 -3.5549591 -0.57573467 53.285713
-4.1630907 -3.5394087 -0.58522731 51.454548
-4.0860004 -3.5163333 -0.59366667 50.333336
-3.940625 -3.5390627 -0.5086875 54.5
-3.8962498 -3.5362501 -0.51475 54.75
-2.7068822 -3.5216467 -0.55035293 147.29411
-2.6712713 -3.5047832 -0.54857296 145.52084
-2.0451794 -3.5496461 -0.55001324 81.23246
4.3761382 -3.5504458 -0.53726715 51.603958
4.4359012 -3.5484881 -0.58124387 53.341461
-4.0440006 -3.4115 -0.51894438 51.611111
-3.9484003 -3.438767 -0.5068 56.033337
-3.847091 -3.4511817 -0.52124238 55.242424
-3.7499685 -3.4232814 -0.54178131 55.09375
-3.6752858 -3.407429 -0.55357146 54.285717
-2.6252759 -3.4957337 -0.5494954 131.41284
-2.5513732 -3.4813035 -0.55134356 112.35683
-2.4516003 -3.4620187 -0.55114299 91.432648
-2.3515694 -3.4432609 -0.55007041 83.421875
-2.2505875 -3.4245968 -0.5499354 85.046593
-2.1601958 -3.407846 -0.55073774 86.253334
-2.0623188 -3.4527574 -0.55089414 83.996086
4.367979 -3.4494522 -0.52971578 51.663158
4.4393187 -3.4502499 -0.57843179 54.75
-8.4380007 -3.3529999 -0.57166666 53.777779
-4.6075001 -3.365 -0.53649998 55.5
-4.544385 -3.3631539 -0.53253853 55.538464
-4.4831667 -3.3526669 -0.53116667 54.5
-4.034286 -3.3948569 -0.51292861 51.785717
-3.9432244 -3.3799388 -0.52489799 53.42857
-3.8507226 -3.3569031 -0.53970838 54.055557
-3.7560179 -3.3278213 -0.55608916 54.607143
-3.6595554 -3.3398888 -0.56322223 55.333332
-3.5564618 -3.3645387 -0.57430768 54.23077
-3.4672859 -3.3347142 -0.59385717 53.857143
-2.1117461 -3.3988533 -0.55178177 87.854546
-2.0835884 -3.3952987 -0.54985476 87.52137
4.3641939 -3.3760324 -0.52283871 51.6129
4.4000001 -3.3870001 -0.55299997 54
-8.4379673 -3.258467 -0.55173337 59.800003
-3.7358468 -3.2865384 -0.56984621 51.538464
-3.6436727 -3.2644727 -0.57980001 53.236362
-3.5673256 -3.253907 -0.5924651 54.534885
-8.4385557 -3.1644816 -0.55000001 56.888889
-7.7713332 -3.1081667 -0.52266669 53.166668
-5.7765718 -3.1487145 -0.50557142 57.428574
-3.9537499 -3.1084998 -0.50562501 54.25
-3.892 -3.102 -0.509 56
-3.6094999 -3.1665001 -0.56 50.5
-3.5481932 -3.1506445 -0.57725799 51.161289
-3.4835 -3.1233335 -0.59350002 52
-8.4239998 -3.0020001 -0.50300002 55
-7.777576 -3.0486066 -0.53551525 52.818184
-3.9345 -3.0799091 -0.50909084 52.636364
-3.8491406 -3.0620525 -0.52075434 53.894737
-3.748379 -3.0465131 -0.53372985 55.121624
-3.6486878 -3.0405273 -0.5420537 55.591396
-3.5498705 -3.0434141 -0.55165517 54.137932
-3.4554946 -3.0384066 -0.58008802 53.34066
-3.3930001 -3.0106666 -0.59899998 54
-8.4300003 -2.9920001 -0.50599998 57
-7.7553573 -2.9407856 -0.53464288 54.000004
-3.8304286 -2.9838574 -0.50985712 51.000004
-3.7439461 -2.9518921 -0.52527028 51.621624
-3.6474915 -2.9566231 -0.55506569 53.229504
-3.548579 -2.9555364 -0.57596856 54.705265
-3.4554136 -2.9713199 -0.59018677 55.466667
-3.392 -2.99 -0.60000002 54.5
-3.1040001 -2.9630001 -0.50099999 55
-3.043478 -2.9687393 -0.50913036 55.942032
-2.9509034 -2.9468234 -0.52435392 56.398232
-2.8528335 -2.9326277 -0.54131365 56.754906
-2.7426996 -2.934463 -0.57130897 56.018181
-7.809 -2.8380001 -0.51099998 51
-7.7799997 -2.8109999 -0.51549995 52
-3.9128332 -2.8551669 -0.50300002 53.666668
-3.8470135 -2.8464227 -0.51176053 54.338028
-3.7486567 -2.8490002 -0.5213905 54.742859
-3.6522737 -2.8440187 -0.53761315 54.235851
-3.5561976 -2.8445003 -0.56368595 53.872093
-3.0340269 -2.8531079 -0.5082162 56.37838
-2.949333 -2.8385334 -0.52771658 56.050003
-2.8482299 -2.8624251 -0.55388498 57.149426
-2.7466872 -2.8561919 -0.57902908 58.936047
-2.692621 -2.8621376 -0.59365523 59.344826
-8.5034781 -2.7203476 -0.54799998 229
-8.4919987 -2.7539113 -0.55382353 190.05882
-7.1083336 -2.7813334 -0.50966668 52.333336
-7.098 -2.763 -0.51700002 53
-3.9184999 -2.7065001 -0.50150001 55
-3.8406348 -2.7396731 -0.50792325 53.94231
-3.7561712 -2.7498145 -0.52821422 53.5
-3.6614809 -2.7868152 -0.55174071 55.074074
-3.5751004 -2.7944 -0.56300002 55.299999
-3.0095 -2.7979999 -0.50349998 55
-2.9359031 -2.7765481 -0.5229677 55.935482
-2.8443439 -2.7576444 -0.5489462 56.2043
-2.7486811 -2.7429361 -0.57972807 56.800003
-2.6956503 -2.7379 -0.597 56.549999
-8.5168867 -2.6538374 -0.55038744 233.85001
-7.8343749 -2.6183751 -0.58087504 53
-7.7969999 -2.6145 -0.55200005 52.5
-3.9112668 -2.6478 -0.50246668 55.000004
-3.8479857 -2.6510859 -0.51220012 55.07143
-3.7515564 -2.6529002 -0.52919996 54.811111
-3.6832502 -2.6784999 -0.54075003 54.625
-2.817893 -2.6487148 -0.5429644 55.000004
-2.7485254 -2.6487257 -0.56456673 55.76667
-2.6751664 -2.6219995 -0.58494443 55.666668
3.4509046 -2.6289456 -0.54986501 81.809532
4.9576983 -2.6499014 -0.55207145 51.348217
5.0488963 -2.6275628 -0.54928893 51.533333
5.1346326 -2.6083412 -0.54231644 51.329117
5.2066669 -2.6016669 -0.50699997 50
-8.538538 -2.5515394 -0.54866666 238.64368
-7.8278179 -2.5560005 -0.55345458 56.727276
-7.7750001 -2.5585001 -0.53387499 55.125
-3.9189997 -2.5396152 -0.50353855 54.538464
-3.8462901 -2.5443859 -0.51867539 54.245613
-3.7724907 -2.5668001 -0.53292739 54.036362
-2.8091998 -2.5776002 -0.53369999 54
-2.7472954 -2.5494423 -0.55013174 55.193798
-2.6577408 -2.546633 -0.58348924 57.597122
3.4361117 -2.5503237 -0.55047286 81.748955
5.1769567 -2.5951781 -0.5654667 52.111111
5.2495232 -2.5840745 -0.55081296 51.429905
5.3476868 -2.5700595 -0.54932356 51.666668
5.4497528 -2.5545144 -0.54994279 52.838097
5.5516663 -2.5335004 -0.54924077 52.212963
5.6497025 -2.5128069 -0.55062497 52.113636
5.7030773 -2.5021541 -0.54961538 51.769234
-8.5606871 -2.4470849 -0.55116874 229.49397
-7.02 -2.4025002 -0.57350004 51
-4.0078006 -2.4088001 -0.50319999 53.799999
-3.9434161 -2.4423137 -0.51475424 53.677967
-3.8716393 -2.4781997 -0.52643996 53.699997
-2.910625 -2.4377501 -0.504875 55.375
-2.843241 -2.4424293 -0.51726788 56.339287
-2.7485905 -2.4502106 -0.53991473 56.55114
-2.6515121 -2.4467006 -0.57802892 59.236713
3.4179199 -2.4510047 -0.55079341 82.818176
5.755012 -2.4905498 -0.55014592 51.382023
5.8489294 -2.4705768 -0.55089402 51.247059
5.9458137 -2.4497437 -0.5501045 51.5
6.0455189 -2.428674 -0.55020481 51.542168
6.1389723 -2.409188 -0.55134785 51.507248
9.4983339 -2.4023335 -0.5575555 230.44444
9.5015717 -2.4148571 -0.54500002 212.28572
-8.5821486 -2.3470376 -0.55009872 229.74074
-7.0549374 -2.395375 -0.56743747 52.5625
-6.993 -2.3929999 -0.59500003 50
-4.1110001 -2.3122501 -0.50199997 53.5
-4.0429306 -2.3508604 -0.51190692 53.744186
-3.967344 -2.385781 -0.52475005 53.84375
-2.9025002 -2.395 -0.50150001 55
-2.8372643 -2.3579197 -0.51562065 55.712643
-2.7470968 -2.3507109 -0.54193372 57.186745
-2.6505907 -2.3497224 -0.57715791 61.641029
3.3964083 -2.321846 -0.55215532 125.45631
3.40464 -2.371618 -0.54889089 104.55151
6.1905723 -2.3987145 -0.54378575 51.64286
6.2500525 -2.3864744 -0.5485512 51.692307
6.3495927 -2.3654075 -0.55323672 51.684212
6.4494567 -2.3452649 -0.55055887 51.382355
6.5483537 -2.3253086 -0.55017644 52.176472
6.633872 -2.3080637 -0.5517872 51.893616
9.487608 -2.3478928 -0.55132145 241.87502
-8.6068764 -2.2301629 -0.54759187 227.71428
-8.5966129 -2.2783222 -0.55583864 232.6129
-4.151125 -2.2695 -0.50450003 54
-2.9144869 -2.2398109 -0.50332439 56.351353
-2.8520772 -2.2505352 -0.51440126 56.795773
-2.7369096 -2.2446904 -0.53850567 58.123596
-2.6549602 -2.2508712 -0.57772565 63.209675
3.39095 -2.2769794 -0.55035084 148.86755
3.4491599 -2.2493334 -0.55125606 131.39371
3.5497103 -2.2300444 -0.55012608 104.09055
3.6512251 -2.2125974 -0.55041093 81.771683
3.7129445 -2.2025638 -0.55041814 80.618179
6.6837502 -2.2975996 -0.54595 51.600002
6.7517996 -2.2839382 -0.54930758 51.046154
6.8519998 -2.2621107 -0.55041271 51.03175
6.9469309 -2.2405694 -0.55181032 51.017242
7.0475774 -2.2173598 -0.55079675 51.1875
7.1073747 -2.2014999 -0.53550005 51.5
9.4670343 -2.2487421 -0.55053037 238.45456
-8.6233244 -2.1505239 -0.55053753 237.575
-2.9206557 -2.1441638 -0.50472134 56.999996
-2.8472273 -2.1473374 -0.52060884 57.163044
-2.7471874 -2.153749 -0.54668164 59.730339
-2.663975 -2.1535716 -0.58097905 68.004204
3.7632177 -2.1941302 -0.5502485 80.527954
3.8516273 -2.1781037 -0.55052108 80.765259
3.9383812 -2.1623695 -0.55055076 80.398552
7.1552458 -2.1839998 -0.55543065 51.338463
7.2453766 -2.152312 -0.54878128 51.109375
7.344656 -2.1241896 -0.55117238 52.258621
7.4241204 -2.1067598 -0.5402 52.32
9.4466858 -2.1500361 -0.55017549 227.70175
-8.6451387 -2.0517662 -0.5508889 231.49384
-5.6486001 -2.0161998 -0.58059996 52.400002
-5.5773335 -2.0090003 -0.57100004 51.333336
-2.9354813 -2.0433719 -0.50919712 57.051094
-2.8500869 -2.0492475 -0.53094786 58.065216
-2.7467053 -2.0494533 -0.56121403 61.261993
-2.6807003 -2.0572135 -0.58832657 71.846672
7.4682274 -2.0945001 -0.54949999 52.545456
7.5468049 -2.0796094 -0.53992683 52.658535
7.6518092 -2.0586193 -0.54419053 53.738098
7.7504759 -2.041476 -0.55252373 55.214287
7.847167 -2.0274999 -0.55276668 53.933334
7.9474702 -2.0304117 -0.54882354 57.823528
8.0136671 -2.0363336 -0.5533334 62.333336
9.4258204 -2.0516665 -0.55039394 229.06061
-8.6669989 -1.9536661 -0.55016047 223.62964
-5.5430002 -1.999 -0.57300001 51
-5.4137497 -1.97 -0.56275004 51
-5.3339 -1.9482001 -0.57110006 51.700001
-5.2475629 -1.9318749 -0.57924998 52.5625
-5.160769 -1.9224615 -0.59015387 53.384617
-3.0229995 -1.928046 -0.506477 57.123077
-2.949877 -1.9505461 -0.52063769 57.873363
-2.8490841 -1.9495169 -0.54614282 59.739498
-2.7490001 -1.9518118 -0.57742196 64.393753
-2.6949999 -1.9861176 -0.59658819 77.117645
9.3952618 -1.9155221 -0.55417383 233.78261
9.4066677 -1.9653573 -0.54802388 232.38095
-8.6888752 -1.8498107 -0.55055547 231.84445
-5.1262002 -1.8040001 -0.51140004 61.200001
-5.0960002 -1.802 -0.53200001 68
-3.1210222 -1.8215332 -0.5060001 57.333336
-3.0485442 -1.8488719 -0.51693839 57.805691
-2.9500709 -1.8500959 -0.53930128 59.301311
-2.8476756 -1.8486363 -0.56574219 61.498257
-2.7726891 -1.8606945 -0.58868933 64.988701
9.3804913 -1.8512205 -0.55096608 239.1017
-8.7101393 -1.7448863 -0.55103797 242.29115
-8.6999998 -1.79 -0.51099998 246
-5.1191001 -1.7920001 -0.52059996 61.400002
-5.0395789 -1.7622105 -0.5383684 54.473686
-4.970727 -1.7544546 -0.53854549 60.18182
-3.3039999 -1.702 -0.50099999 58
-3.242722 -1.7319692 -0.50865978 58.371132
-3.1484389 -1.7514826 -0.52020293 59.280193
-3.0487962 -1.7518673 -0.54216462 60.349396
-2.9478753 -1.7528158 -0.56899357 62.038708
-2.8631296 -1.7740391 -0.58675843 65.820229
-2.796 -1.7967501 -0.59825003 67.75
9.3584337 -1.7553285 -0.54979104 245.49254
-8.7322445 -1.6478639 -0.55049372 244.75308
-4.4134288 -1.6655713 -0.51300001 54.000004
-4.3467035 -1.6538147 -0.52059257 53.555557
-4.2502704 -1.6367298 -0.5238378 53.432434
-4.1506925 -1.6196668 -0.52225649 54.384617
-4.0543637 -1.6092272 -0.51236361 54.272728
-3.9850004 -1.6038001 -0.50620002 55
-3.3267224 -1.6498197 -0.50569445 56.319447
-3.2481782 -1.6569077 -0.51934963 57.165642
-3.1492498 -1.6572666 -0.53932804 58.116669
-3.0486171 -1.6560588 -0.56300908 59.172726
-2.9599257 -1.6606522 -0.58714694 60.965687
-2.8970001 -1.696 -0.60000002 64
9.3349419 -1.6544701 -0.55053025 238.07576
-8.7539263 -1.5496449 -0.55089897 239.41772
-4.1151114 -1.595 -0.57099998 53.222221
-4.0474486 -1.5861633 -0.55177546 53.204079
-3.9466581 -1.5743299 -0.54318827 54.22353
-3.8489721 -1.559936 -0.54738182 54.672726
-3.7507832 -1.5463364 -0.54828578 54.857147
-3.650708 -1.5297887 -0.54988617 55.032516
-3.5513637 -1.5231545 -0.53671813 55.836361
-3.4503584 -1.5179807 -0.52719426 56.495148
-3.3444757 -1.5306644 -0.51571089 56.976563
-3.2509482 -1.5436915 -0.52084011 56.537144
-3.1488338 -1.5440835 -0.53794801 56.782383
-3.0426717 -1.5409845 -0.56451339 61.598454
-2.9725463 -1.5660787 -0.58429492 68.064751
9.3116026 -1.553912 -0.54972064 235.54411
-8.7734318 -1.4509996 -0.54981482 196.81482
-3.6110001 -1.4979999 -0.59549999 54.5
-3.5414999 -1.4916842 -0.58584213 55.5
-3.4452994 -1.4852598 -0.57816887 56.61039
-3.3487568 -1.4813867 -0.56985724 57.117649
-3.2500064 -1.4766507 -0.56673139 57.939598
-3.1500123 -1.4723233 -0.57159418 59.311768
-3.0550778 -1.4760177 -0.58227551 70.461082
9.2890596 -1.4542233 -0.55022395 240.04477
-8.8011112 -1.308 -0.54855555 199.66667
-8.7914457 -1.3575 -0.5506528 207.47223
9.2663727 -1.3551006 -0.55089998 236.60001
-8.8106451 -1.2639836 -0.55391943 165.20967
9.2434216 -1.2504869 -0.55072373 226.38158
-8.1265392 -1.1159229 -0.51784617 55.076923
9.2201586 -1.147514 -0.55137146 227.8
-8.1447153 -1.0661429 -0.52176189 64.619049
-8.0469446 -1.0433334 -0.55297232 52.111111
-7.9945002 -1.0039999 -0.54900002 50.5
9.2042942 -1.0745293 -0.55035287 229.85294
-8.0162497 -0.99650002 -0.58274996 53
-7.9661055 -0.94680274 -0.55534214 50.486843
-7.8839998 -0.90499997 -0.50849998 52.5
8.5360451 -0.9374218 -0.54934376 90.53125
-7.954947 -0.84928554 -0.55438459 52.36264
-7.8688331 -0.87950009 -0.50766671 55.5
8.4972105 -0.80921036 -0.55063158 92.105263
8.5122223 -0.85928154 -0.54982793 91.296875
-7.9626775 -0.75189936 -0.55042428 60.535355
8.4797144 -0.74835724 -0.5508095 93.345238
-7.9690509 -0.65209341 -0.54935414 97.395836
8.4532127 -0.64999986 -0.55011749 94.823532
-8.7130003 -0.53100002 -0.58600003 50
-8.6665001 -0.55150002 -0.58216667 50
-8.5916672 -0.55566669 -0.59500003 50
-8.0481434 -0.50785708 -0.58900005 50.714287
-7.9812069 -0.56393099 -0.5343104 50.586208
8.4275351 -0.55172616 -0.55015469 94.583336
-8.114625 -0.41775 -0.59049994 50.375
-8.0489759 -0.46815383 -0.54230767 54.564102
-7.9903336 -0.49000001 -0.51966667 50
8.4097881 -0.45002127 -0.55036849 94.063164
-8.1506443 -0.33886668 -0.57666671 50.555557
8.3930054 -0.34349996 -0.54962164 94.013519
8.401 -0.391 -0.54960006 95.5
-9.0278893 -0.22177777 -0.51311111 95.444443
-8.2204847 -0.23302855 -0.54979998 52.528572
-8.1851997 -0.28375003 -0.56660002 50.299999
8.3791208 -0.25283727 -0.55008125 96.674416
-9.0486536 -0.14598414 -0.54231751 174.44446
-8.3075008 -0.13225 -0.54250002 54
-8.2568569 -0.15777776 -0.56217456 52.285717
8.3645391 -0.15267016 -0.55032974 97.595741
-9.0702391 -0.051486846 -0.5487895 187.10527
-8.3316259 -0.039291665 -0.56158334 54.791668
-8.2836571 -0.057896554 -0.58544832 53
8.350605 -0.047776572 -0.55044675 96.436165
-9.1076679 0.079999998 -0.54150009 114.58334
-9.0895996 0.037600007 -0.53412503 188.97501
-8.4082499 0.074749999 -0.51924998 58
-8.3512821 0.048512824 -0.54861546 55.23077
-8.2760592 0.055969696 -0.58360612 53.333336
8.373333 0.013444443 -0.54388893 57.555557
8.4405565 0.023111112 -0.57288885 55.444447
8.5299997 0.036499999 -0.58950001 55.25
8.6330004 0.054000001 -0.60000002 53
8.8683338 0.077 -0.5547778 57.888889
8.9500952 0.074333325 -0.55476189 65.428574
9.0769005 0.027799999 -0.53479999 58.100002
9.1186152 0.039923083 -0.55053848 54.92308
-9.1185722 0.12114286 -0.51485723 107.85715
-8.4099998 0.10466667 -0.50400001 56
-8.3376675 0.12425001 -0.5217917 53.625
-8.2581244 0.15502736 -0.55853415 57.013699
8.6375008 0.17471427 -0.58650005 66.785721
8.9640789 0.14367102 -0.54825008 221.51315
9.0129995 0.192 -0.50599998 115
-8.2484283 0.24916659 -0.54991663 60.4375
8.4863501 0.22775002 -0.56319994 133.40001
8.5164289 0.22714286 -0.5365715 120.00001
8.6480007 0.206 -0.59450001 65.5
8.7840004 0.25657144 -0.57257146 126.57143
8.8378429 0.25257894 -0.54542106 146.1579
8.9394646 0.26203573 -0.54410714 225.57144
9.0109997 0.20299999 -0.53299999 118
-8.2459393 0.35127088 -0.55061448 80.864586
-8.191 0.39200002 -0.59500003 94.5
8.9235897 0.34663752 -0.55043745 252.5625
-8.30375 0.49150002 -0.53474998 57.25
-8.2456217 0.44591799 -0.53514761 70.049179
-8.1886206 0.45231029 -0.58441377 85.482758
8.4769993 0.45220354 -0.54675919 183.85185
8.5145836 0.46166667 -0.5205 166.66667
8.9176254 0.41524994 -0.56179172 223.20834
-8.3129568 0.53404349 -0.52504349 56.52174
-8.2466125 0.56198388 -0.55083859 74.91935
-8.1879988 0.51630771 -0.58284622 80.307693
8.4700451 0.54540563 -0.53662318 200.75363
-8.4210672 0.6620667 -0.5794667 55.333336
-8.3517838 0.62908697 -0.56234777 54.260872
-8.2456961 0.63013035 -0.52956522 56.217392
8.3900003 0.61199999 -0.58399999 71
8.4589415 0.6430769 -0.53444225 181.15385
8.8659992 0.66874999 -0.59200001 128.25
-9.2121534 0.78250009 -0.54796153 146.5
-9.194334 0.75566667 -0.51899999 80
-8.641777 0.71377784 -0.53611118 82.222221
-8.5880003 0.70899999 -0.551 79
8.2810001 0.76099998 -0.55800003 91
8.3384714 0.78285319 -0.55149996 164.88235
8.4464006 0.73706657 -0.51963329 185.60001
8.7724991 0.79500002 -0.58850002 56.5
8.8431196 0.75287992 -0.58487999 165.64
-9.2172747 0.83735293 -0.55107838 167.80392
-9.157937 0.87818754 -0.55068755 146.1875
-9.0795002 0.89349991 -0.55006254 150.9375
8.3218002 0.84943515 -0.55071759 177.87059
-9.0241404 0.950405 -0.54973429 194.70886
8.2918053 0.96771437 -0.55055368 174.03572
8.3049212 0.91692322 -0.55138445 183.30769
-9.1097279 1.0275455 -0.54509097 83.36364
-9.0428534 1.0379999 -0.55329412 90.588234
-8.9359255 1.0667406 -0.55292588 82.925926
-8.8390007 1.0891854 -0.55444443 83.074074
8.2835073 1.0455571 -0.55486888 114.31147
8.3198853 1.0638461 -0.54115379 79.153847
-8.7468891 1.1113333 -0.54911107 85
-8.6503601 1.1376665 -0.54730564 112.05556
-8.5507841 1.1744782 -0.5498696 189.95653
8.2738352 1.1486048 -0.54856056 138.24176
-8.5628185 1.2527835 -0.55067462 222.6747
8.2454853 1.2468001 -0.55015796 134.64211
-8.6020002 1.391 -0.50099999 221
-8.5849724 1.3493562 -0.55127406 221.20547
8.1984997 1.393 -0.59150004 93.5
8.2170429 1.3477018 -0.54887235 96.648933
-8.6110001 1.4578124 -0.54499996 219.3125
-8.5967226 1.4128335 -0.5712778 221
3.1759765 1.4884049 -0.59261906 51
3.2539995 1.4751481 -0.58276772 51.019356
3.350445 1.4679949 -0.56980306 51
3.4486794 1.4616483 -0.56403953 51
3.5488663 1.4608824 -0.56124026 51
3.6470642 1.462732 -0.55971837 50.943661
3.7469513 1.4675204 -0.55747199 50.736004
3.8462088 1.4751512 -0.55727911 50.662792
3.9464667 1.4815601 -0.56157327 50.373333
4.0410967 1.4912683 -0.56948781 50.121948
4.112 1.497 -0.597 50
7.9949999 1.493 -0.52399999 53
8.0360003 1.4940002 -0.52033341 53.666668
8.1827602 1.4548334 -0.55377382 104.94048
8.2025833 1.4114168 -0.52483338 97.166672
-8.6308851 1.5499868 -0.55229115 218.84811
3.0724466 1.5723612 -0.58874619 51.623077
3.1487076 1.5487889 -0.56928027 51.075298
3.2470276 1.5466108 -0.54181331 51.019455
3.3462665 1.5434513 -0.52200979 51.033981
3.4426782 1.5237801 -0.51245856 50.999996
3.5476363 1.5080454 -0.51034087 51
3.6495252 1.5079502 -0.51214999 51
3.7469089 1.5123863 -0.51406819 51
3.8546662 1.5169762 -0.51402384 50.880955
3.9542947 1.5198432 -0.5161373 51
4.0503263 1.5194696 -0.52093881 51.244896
4.1380157 1.5211246 -0.53604686 50.765625
4.2403445 1.5431724 -0.52451724 50.172413
4.3570004 1.5587827 -0.52356529 50.434784
4.4441438 1.576476 -0.51957142 51
4.5402308 1.590923 -0.54661542 51
4.6030002 1.598 -0.59899998 51
7.9835887 1.5418824 -0.53217643 55.411766
8.0364599 1.5475138 -0.5414325 54.513515
8.1615219 1.5215217 -0.56108695 123.34783
-8.6496668 1.6245002 -0.55036116 213
2.9875493 1.6660787 -0.59390193 51.666668
3.0487127 1.6401771 -0.57452399 51.350555
3.1476958 1.6382691 -0.54051262 51.06599
3.2448874 1.6451062 -0.51769006 51.267605
3.3218381 1.6331353 -0.50464869 51.270271
4.5767498 1.6032499 -0.50650001 51
4.6440001 1.6125834 -0.53816664 51
4.7328 1.6281999 -0.56 51
8.0869999 1.605 -0.54500002 54
8.1280003 1.608 -0.5575 53.5
8.2639999 1.651 -0.50700003 55
8.3146667 1.6543335 -0.50833338 54
8.5629997 1.618 -0.51166672 55
8.6537342 1.6643335 -0.52086669 145.40001
-9.4355001 1.7945 -0.565 195.5
-9.3360004 1.788 -0.53200001 95
-9.2252226 1.7770001 -0.53577781 113.66666
-9.1725998 1.7862999 -0.53719997 117
-9.0404005 1.7594 -0.59780008 63.600002
2.9850972 1.7713056 -0.59252775 51.430557
3.0479643 1.7496822 -0.56758934 51.110119
3.1389332 1.7220258 -0.54113454 51.470592
3.2239997 1.7088948 -0.52126324 51.894737
5.0880003 1.7127502 -0.54649997 55.5
5.128077 1.7077693 -0.55292302 59.153847
5.2509522 1.7432858 -0.54166675 59.904762
8.592 1.756 -0.52399999 86
8.6270237 1.7651218 -0.55992687 193.80487
8.7270002 1.755 -0.57099998 54
-9.4495831 1.8278334 -0.57875001 179.91667
-9.3698893 1.8648889 -0.57755554 102
-9.2371159 1.8576922 -0.54734612 124.26923
-9.1740627 1.8315001 -0.54312503 112.5625
2.9651821 1.8544254 -0.58110261 51.13308
3.034157 1.8376759 -0.55187273 51.017342
3.1032002 1.8149999 -0.53479999 51
4.0880003 1.8920001 -0.58625001 51
4.1622505 1.8824642 -0.57642865 50.750004
4.2323327 1.8767779 -0.5687778 50.444447
4.3476114 1.8871667 -0.52155554 50.166668
4.4171996 1.8816 -0.50439996 50.200001
4.598 1.8 -0.53100002 50
4.6089997 1.8061429 -0.53071427 50.000004
4.8800001 1.8236666 -0.57700002 50
4.9606428 1.8250715 -0.58399999 50.500004
5.0534616 1.8302308 -0.57784617 51.076923
5.1285 1.8446667 -0.55666673 51.666668
8.5984449 1.8988889 -0.55500001 239.33333
8.6098528 1.8444434 -0.55059266 244.54321
-9.3426161 1.9233848 -0.56261539 122.38462
-9.2561216 1.9443471 -0.55102026 136.53061
-7.2214999 1.9714167 -0.54499996 67.25
-7.1457644 1.9693824 -0.54935294 60.64706
-7.0483627 1.9744543 -0.54956818 60.795456
-6.9496803 1.9823614 -0.55078727 60.680851
-6.8554144 1.9893657 -0.56048781 60.024387
-6.7629337 1.9940002 -0.58600003 60.666668
-3.8148084 1.9437402 -0.54956156 89.19178
-3.7479362 1.9578772 -0.54989147 91.909508
-3.6492596 1.9794121 -0.55035239 91.967613
-3.5792434 1.9949797 -0.55102009 92.666664
2.8910317 1.9783225 -0.59570968 51.290321
2.9426699 1.9473897 -0.57350987 51.050003
3.0109568 1.9266521 -0.54756522 51.04348
3.9742 1.9645001 -0.59539998 51
4.0553393 1.9418473 -0.58386439 50.237289
4.1494479 1.9379736 -0.56243438 50
4.2474585 1.9286231 -0.53537703 50.016392
4.3419285 1.9120717 -0.51364285 50.035717
4.4705 1.9148333 -0.50199997 50
4.5209999 1.9324999 -0.50150001 50
5.5830002 1.9184999 -0.54900002 51
5.6343336 1.9361668 -0.53933334 51.5
8.5871887 1.9548534 -0.54813325 244.65334
8.6066666 1.927 -0.56466669 122
-9.5214624 2.0713332 -0.55151278 219.76923
-9.4793339 2.0300002 -0.57100004 145.66667
-9.323 2.0050001 -0.59100002 89
-6.8252501 2.0029168 -0.51999998 60
-6.7446976 2.0101626 -0.54193026 60.162792
-6.6499386 2.0243034 -0.551 60.196972
-6.5503855 2.0437388 -0.55079997 60.969231
-6.4512801 2.0657735 -0.54800004 62.133335
-6.3489504 2.0800161 -0.55316132 59.903225
-6.2664571 2.0930657 -0.55650002 61.02174
-3.5306132 2.0059383 -0.54989326 91.333336
-3.4517899 2.0237176 -0.5504508 103.66182
-3.3526592 2.0458415 -0.5503785 129.46071
-3.2680066 2.0712717 -0.5500806 160.02681
2.8797684 2.0549023 -0.58903742 51.111938
2.9330981 2.0450814 -0.56508672 51.023121
3.9685109 2.0706384 -0.59397882 51
4.0610094 2.0708776 -0.56037718 50.578949
4.1476841 2.0573575 -0.54123807 50.452385
4.2320666 2.0417337 -0.55426669 50.066669
4.3109999 2.0644999 -0.56 50
5.2839999 2.0610001 -0.59799999 50
5.3099999 2.063 -0.59899998 50
8.5666733 2.0504756 -0.55082923 253.15852
-9.5411205 2.1504409 -0.54869491 219.71187
-6.2231917 2.1036925 -0.53542304 60.92308
-6.1494675 2.1161041 -0.54985714 61.116882
-6.0500126 2.1350958 -0.55159509 61.107143
-5.9495053 2.1551726 -0.5486173 61.679012
-5.850945 2.1750002 -0.54977775 61.644447
-5.761692 2.1913996 -0.56116927 60.846153
-3.2681899 2.1498401 -0.55029541 128.28825
