# .PCD v0.7 - Point Cloud Data file format
VERSION 0.7
FIELDS x y z intensity
SIZE 4 4 4 4
TYPE F F F F
COUNT 1 1 1 1
WIDTH 1196
HEIGHT 1
VIEWPOINT 0 0 0 1 0 0 0
POINTS 1196
DATA ascii
10.928 -19.59775 0.14525001 59.75
10.863001 -19.424 0.15166667 195.33334
5.0029998 -19.1045 0.14150001 201.75
10.7025 -19.025 0.124 90.5
4.9299998 -18.921 0.185 58
10.596 -18.891001 0.153 180.5
10.670727 -18.856636 0.15000001 223
10.745183 -18.827545 0.14972727 202.72728
4.888 -18.76 0.11 59
10.780668 -18.774666 0.149 107.66667
4.8292503 -18.63225 0.15100001 255
4.7922497 -18.585751 0.15525 68.5
10.707 -18.592499 0.15549999 126
4.70575 -18.344501 0.15599999 57
10.61625 -18.381001 0.14850001 61.75
10.59875 -18.298 0.1425 139
4.6409998 -18.187201 0.14780001 202.8
10.528667 -18.124334 0.15133333 71.666672
4.5700002 -18.003 0.127 67
4.5573339 -17.954666 0.17300001 72
10.4675 -17.966751 0.1565 70.75
4.5137501 -17.876249 0.14274999 130.25
10.40925 -17.81575 0.15099999 70.5
4.43575 -17.661001 0.14500001 60.5
10.352501 -17.66725 0.14125 71.75
4.1563535 -17.514826 0.15158825 184.64706
10.299 -17.525999 0.124 79
10.3005 -17.5285 0.16249999 79.5
4.0710001 -17.408201 0.14720002 99.400002
4.248652 -17.476696 0.14913043 194.30435
4.3330002 -17.445156 0.14899999 174.07693
10.2415 -17.377748 0.15375 68.25
4.0155997 -17.267401 0.1506 90.599998
10.187 -17.23575 0.14749999 68.75
3.9604001 -17.128799 0.154 93.599998
10.1325 -17.094501 0.1415 67.75
3.9077499 -16.998501 0.14775001 95.75
10.078501 -16.955502 0.15949999 70
3.8545001 -16.862751 0.15125 95.5
10.03125 -16.82675 0.15425 74.25
9.9777498 -16.689501 0.14675 76.75
0.22850001 -16.506336 0.14466667 172.16667
9.9244995 -16.552752 0.14274999 73.75
0.26778573 -16.490286 0.15292858 222.71429
0.34750003 -16.457335 0.15095833 222.66667
0.43889484 -16.420212 0.14805263 224.94737
9.875 -16.423401 0.14899999 74.800003
0.49200001 -16.399 0.15699999 233.8
0.55175006 -16.375877 0.14970835 234.79167
0.65400004 -16.335291 0.15141666 239.54167
0.72500008 -16.306799 0.147 242.90001
9.8303337 -16.303335 0.16800001 80.333336
0.77499998 -16.2864 0.15126668 242.06668
0.85520828 -16.253122 0.15033334 241.33334
0.92550004 -16.2281 0.14420001 217.90001
9.8290005 -16.299999 0.12 79
9.7782497 -16.170502 0.14999999 80
9.6916676 -15.967167 0.13366668 95.833336
9.7086668 -15.965 0.17166667 72
11.549 -15.946667 0.18366668 125.33334
9.6647491 -15.84775 0.15525 76.5
2.0587502 -15.76565 0.1461 237.45
2.145 -15.731481 0.15163998 247.92
2.2104445 -15.705222 0.14344445 249.44444
9.6697502 -15.789 0.146 122.625
9.7503004 -15.773149 0.1524 166.55
9.8480539 -15.733527 0.14826316 165.94737
9.9133997 -15.7086 0.13520001 159
2.2662382 -15.682334 0.15133335 248.57143
2.3539999 -15.646603 0.14936 250.12
2.4343529 -15.614174 0.15058823 251.11765
9.9623117 -15.685312 0.15468751 152.3125
10.048824 -15.648529 0.14864707 162.70589
10.105 -15.62675 0.146 167.25
2.4788752 -15.595377 0.14112499 251.5
2.5521665 -15.565332 0.14843334 250.90001
2.6554003 -15.522759 0.15019998 251.36
2.7489998 -15.483122 0.15176 252.23999
2.8039999 -15.457 0.1552 245.2
3.5152001 -15.467799 0.152 89.400002
2.8464999 -15.355577 0.14915383 244.96155
2.9388003 -15.319758 0.14979997 244.87999
3.4669998 -15.3442 0.15619999 85.599998
10.934692 -15.340923 0.14815384 149.07693
11.082335 -15.329333 0.13166666 100.33334
11.121666 -15.330334 0.14966667 102.66667
2.9949999 -15.298599 0.1486 242.60001
3.0496926 -15.278464 0.15011537 249.57693
3.152467 -15.239533 0.14769998 245.06668
3.2251816 -15.210727 0.15109091 245
3.4150002 -15.203402 0.1576 84.800003
10.973001 -15.272833 0.14500001 79.75
11.072 -15.2885 0.1085 110
11.146572 -15.229666 0.14842857 157.4762
11.215667 -15.203001 0.149 158.33334
3.2733126 -15.191437 0.14862499 244.375
3.3455195 -15.162398 0.15024002 240.48
11.256001 -15.186573 0.15207145 158.42857
11.339437 -15.150937 0.15474999 141.375
11.446145 -15.123217 0.15207143 127.35715
11.511 -15.121 0.1345 142.5
11.491 -15.095 0.19400001 150
11.545707 -15.06459 0.14735295 142.64706
11.647738 -15.028738 0.1456316 146.94737
11.738874 -15.01525 0.178 131.25
11.7663 -14.982401 0.1358 131.90001
11.847352 -14.953295 0.1494706 152.05882
11.939429 -14.9195 0.15478571 152.71429
12.01 -14.903 0.182 161
11.983001 -14.895 0.12133333 141
12.050178 -14.876234 0.14594117 142.82353
12.114 -14.865667 0.17666668 129.33334
8.6739998 -13.339801 0.148 65
8.6346006 -13.242999 0.14320001 64.599998
8.6101999 -13.1694 0.15740001 80.599998
8.5904999 -13.0857 0.1505 173.40001
8.6489229 -13.050579 0.149 246.11539
8.7338505 -13.016751 0.1516 241.35001
8.7810001 -12.998 0.148 241.40001
8.8460331 -12.973224 0.14790319 243.16129
8.9510021 -12.93248 0.149 246.23999
9.0175009 -12.907501 0.156 243.5
9.065733 -12.889202 0.14653334 241.73335
9.1135006 -12.871498 0.15510002 234.7
1.2589999 -9.9314003 0.17169999 113.7
0.58500004 -9.8249989 0.15049998 234.625
0.62124997 -9.8108101 0.14921875 247.0625
1.2460001 -9.8466673 0.12100001 95.333336
0.67018187 -9.7915163 0.14987881 246.27274
0.74842465 -9.7596054 0.14878076 243.08218
0.84887481 -9.7183933 0.14884377 239.51563
1.1789587 -9.7419176 0.15008333 116.04167
1.2151766 -9.7760601 0.14717647 152.58824
0.94885135 -9.6761541 0.14929731 239.21622
1.0487723 -9.6331797 0.15006059 240.07576
1.1221818 -9.6250916 0.14954545 170.8485
6.4318752 -7.8495011 0.14912501 118.1875
6.3814378 -7.7281251 0.15143749 117.125
6.4059997 -7.7880011 0.15000001 117.28572
6.3490005 -7.6496868 0.145375 118.375
6.3129158 -7.5576248 0.15070833 108.875
6.2867918 -7.4692497 0.14970833 100.875
6.3051252 -7.4434381 0.14712499 151.5
6.2718754 -7.3570833 0.15104167 118.70834
6.2299232 -7.2530375 0.1503077 142.5
6.1847615 -7.1406665 0.14342858 142.57143
6.2014999 -7.1825004 0.17199999 100.75
6.1464787 -7.0462012 0.15052001 104.6
0.064114273 -6.9354548 0.14925711 96.114288
6.0929999 -6.9151258 0.147625 101.75
6.113883 -6.9658823 0.14923531 148
0.024333324 -6.8264999 0.14924999 82.055557
6.0718856 -6.8570395 0.14946154 135.61539
-0.012565219 -6.7416091 0.14867394 87.108696
0.0070000002 -6.7985001 0.15216668 129.75
6.0298147 -6.7572956 0.15103704 105.03704
-0.058802091 -6.6603961 0.149625 103.08334
5.9805393 -6.6341162 0.14915386 127.30769
6.003777 -6.6942225 0.14588888 121
-0.11532655 -6.5405731 0.14971428 65.571426
-0.095083341 -6.5867496 0.15116668 59.666668
5.9461846 -6.5467772 0.14940742 127.51852
-6.7684937 -6.4415078 0.15008195 242.91801
-6.652 -6.4674997 0.19125 96.5
-0.15397267 -6.4442611 0.14971232 70.178085
5.9105353 -6.4583573 0.14985715 132.5
-6.8139443 -6.3313127 0.1499608 230.64706
-6.7924781 -6.3830404 0.14891998 239.56
-0.20300001 -6.3286929 0.15100001 79
-0.18781078 -6.3544321 0.14945947 61
5.8694177 -6.3572779 0.14905556 127.41666
-6.8503675 -6.2459497 0.14981014 232.34178
-0.2281795 -6.2544484 0.14883332 67.115387
5.8252425 -6.245945 0.15043244 118.86487
-6.9058228 -6.1161771 0.15094116 244.94118
-6.8869634 -6.1610379 0.14850003 237.61539
-0.2681177 -6.1548829 0.15138234 70.926468
5.7866426 -6.149714 0.14885716 110.96429
-6.9317017 -6.0550909 0.14899999 245.75325
-6.165 -6.0019999 0.162 72
-0.31568187 -6.0360932 0.14980306 68.030304
-0.29195657 -6.0971308 0.14347827 73.826088
5.7509208 -6.0579209 0.15089472 113.34211
-6.9743614 -5.9536371 0.14925002 247.3
-0.34858182 -5.9517174 0.15026863 68.850746
5.6938 -5.9162002 0.15019999 165.7
5.7165008 -5.9702511 0.14864287 135.46429
-7.0168276 -5.8469839 0.14913043 242.17392
-6.9970007 -5.8977771 0.15222223 244.66667
-0.40500009 -5.8035722 0.14835715 60.000004
-0.38359967 -5.861249 0.14843751 63.912502
5.6698713 -5.8541284 0.15012822 124.74359
-7.0543432 -5.7521029 0.14984617 244.29488
-0.43057916 -5.7448606 0.14962104 66.063164
5.6305127 -5.7553334 0.14930773 119.5641
-7.1086302 -5.6193337 0.14766666 247
-7.0883651 -5.6684613 0.14961539 248.40385
-5.836585 -5.6298318 0.15430555 57.138889
-5.77 -5.6410003 0.17616665 79.666672
-0.46983704 -5.6498141 0.1497675 70.825584
5.5877934 -5.6471391 0.15065517 138.96552
5.6051993 -5.6935997 0.14650001 103.9
-7.1339507 -5.5527864 0.14953749 244.91251
-5.729609 -5.5838265 0.12695652 69.217392
-5.657722 -5.5720835 0.14386111 78.638893
-5.5661006 -5.5219498 0.14954999 67.650002
-5.0762615 -5.5124354 0.14947826 161.21739
-0.51288867 -5.5388169 0.14915277 66.236115
-0.49299991 -5.5866437 0.14960715 61.07143
5.5506401 -5.5540009 0.14848 117.78
-7.1743011 -5.4524374 0.15103748 239.6125
-5.4455123 -5.4435859 0.15114637 78.463409
-5.3658705 -5.4103541 0.14893547 87.6129
-5.1110749 -5.4335194 0.14875926 169.03703
-5.0900593 -5.4790215 0.15061541 163
-3.9622195 -5.4049401 0.14749999 117.21999
-0.54680163 -5.4556031 0.14947528 66.237625
5.4942994 -5.4153004 0.147 106
5.5125489 -5.4610963 0.14980647 134
-7.2195835 -5.3436136 0.15056001 234.32001
-7.1970911 -5.3958187 0.13163638 237.36365
-5.3147149 -5.3934293 0.14966667 76.523811
-5.2502503 -5.3689313 0.15186362 66.931824
-5.1546431 -5.3274045 0.14373809 64.714287
-5.0539999 -5.3132901 0.1501842 59.947369
-4.868916 -5.3094168 0.15233335 166.33334
-4.2300444 -5.3306103 0.15613435 129.07463
-4.1759739 -5.3364725 0.15205261 68.368423
-4.0496664 -5.312222 0.18366666 103.88889
-3.9168463 -5.3542566 0.15312825 79.358978
-3.8435276 -5.3441815 0.14968055 84.333336
-3.761306 -5.3210125 0.14961176 110.8
-0.60410351 -5.3176556 0.15010345 72
-0.58220255 -5.3664145 0.14929217 64.269661
5.4693484 -5.3501549 0.14946155 148.26924
-7.2585592 -5.2495451 0.14975952 239.17722
-5.1083999 -5.2958002 0.1506 62.400002
-5.0738444 -5.2922497 0.15209374 68.59375
-4.8253942 -5.2881513 0.14893939 88.484848
-4.7447824 -5.251709 0.14821818 91.254539
-4.6589098 -5.2148857 0.15177272 93.840912
-4.2578893 -5.2495093 0.1503889 141.2381
-4.1274123 -5.2740593 0.1427647 73.176468
-4.0598593 -5.2760124 0.14407526 153.16129
-3.9449 -5.2616343 0.1477603 144.10744
-3.6560497 -5.2773204 0.15021999 110.82
-3.5436926 -5.2336698 0.14912282 113.40351
-3.4746361 -5.2016363 0.15590911 92
-0.62955844 -5.2492003 0.14945 63.975002
5.4282455 -5.2434711 0.14822641 128.18867
-7.312202 -5.122756 0.14908889 239.97778
-7.2899551 -5.1751137 0.14968182 237.95456
-4.6136923 -5.1958461 0.1433077 95.153847
-4.5498705 -5.1712909 0.14975365 97.188408
-4.4640851 -5.1393399 0.14927658 98.744675
-4.3103471 -5.128901 0.14930558 157.26389
-4.2797074 -5.1696763 0.14604613 116.76923
-3.4330006 -5.1872015 0.14846838 114.37975
-3.3569009 -5.1647601 0.15026376 114.28572
-3.2527263 -5.1163435 0.14982052 113.78633
-0.66765392 -5.1552129 0.15012152 63.560745
5.3464084 -5.1191812 0.15104544 70.318184
-7.3436227 -5.0483394 0.14948748 239.2625
-4.3236055 -5.0537825 0.14960417 91.53125
-3.1438837 -5.0709338 0.15019168 118.15001
-3.0383284 -5.0268497 0.14906554 119.88524
-2.9921541 -5.0220766 0.14930771 97.846161
-0.71710378 -5.0298882 0.15123278 64.189651
-0.69158721 -5.0882812 0.14836958 65.608696
5.3150001 -5.0508828 0.14960465 98.976746
-7.4029999 -4.901 0.189 255
-7.3816528 -4.9531841 0.14937039 243.27161
-2.9354763 -4.9840016 0.14986598 115.16495
-2.8533399 -4.9575105 0.14920633 115.02382
-2.7623172 -4.9206028 0.14982301 119.9469
-0.75289285 -4.9478183 0.14884423 64.295082
5.2740889 -4.9556899 0.14874546 100.65454
-7.4223943 -4.852437 0.14937079 247.17978
-2.7074287 -4.894393 0.14871427 93.39286
-2.6548378 -4.8783336 0.1498061 125.15504
-2.5574343 -4.8360991 0.14917931 126.62759
-2.4696381 -4.8033891 0.15134723 128.29167
-0.804245 -4.8230805 0.1489796 62.285713
-0.78365612 -4.8685408 0.14917704 65.041672
5.2330699 -4.8555961 0.14938596 105.63158
-7.465898 -4.7486334 0.14946665 248.66667
-2.4425037 -4.7853312 0.14815053 140.32259
-2.3511364 -4.7529297 0.14956629 142.30722
-2.2508082 -4.7130184 0.14953296 130.49103
-0.83191359 -4.7517762 0.14999384 63.629631
5.1868005 -4.734622 0.14962223 92.555557
5.2075915 -4.7895451 0.15036364 107.09091
-7.5128312 -4.633852 0.14868519 245.98148
-7.493752 -4.681036 0.15085715 245.39287
-2.152946 -4.6736436 0.14898823 129.34706
-2.0539415 -4.6334786 0.14927664 144.8351
-1.9927189 -4.6039076 0.15190627 104.4375
-0.87423086 -4.6493711 0.14938729 67.803467
5.1790433 -4.6562514 0.1495326 114.78261
-7.5465341 -4.5505219 0.1486333 247.10001
-1.9455404 -4.5896678 0.14949682 149.49686
-1.8519562 -4.5516219 0.1494929 142.38863
-1.779585 -4.5193162 0.14904878 110.7561
-0.91670507 -4.5414925 0.14974792 66.126053
-0.89799988 -4.5829411 0.14829412 61.558823
5.1445374 -4.5440569 0.15004346 128.62318
-7.6025562 -4.4102221 0.14755554 247.66667
-7.5842066 -4.4569454 0.15101372 247.32877
-0.94959897 -4.4446697 0.1491667 140.91147
5.0961671 -4.4275007 0.15050001 113.08334
5.107893 -4.4521065 0.14857447 134.17021
-7.6262188 -4.3536692 0.14876923 241.36264
-1.0062449 -4.310472 0.15022643 172.52831
-0.98600006 -4.3598595 0.14948936 171.26241
5.0678477 -4.3530688 0.1495139 127.69444
-7.6689429 -4.251277 0.15097778 239.95557
-1.6343982 -4.2597446 0.14920512 194.8782
-1.5501313 -4.2272954 0.14870539 201.22868
-1.4900998 -4.2044206 0.14838 202.08
-1.0294509 -4.2407637 0.14894 181.40999
5.0294027 -4.2546959 0.15020834 131.70833
-7.7170529 -4.1377311 0.1498028 251.26759
-7.6952486 -4.1884499 0.14694999 240
-1.4409087 -4.1850405 0.1504737 205.23444
-1.3510798 -4.1493964 0.1497591 207.02919
-1.2660494 -4.1148949 0.14977075 208.19025
-1.0740914 -4.1509614 0.14941908 174.26971
4.9827795 -4.1366954 0.1449322 131.03391
5.0026789 -4.1814637 0.15807143 139.21429
-7.7539897 -4.0470438 0.14938892 243.61111
-1.2145489 -4.0936346 0.1494516 207.39784
-1.1437918 -4.0705419 0.14937167 198.44543
-1.0979998 -4.09479 0.14868422 180.52632
4.9512191 -4.0512557 0.14975676 134.67567
-7.8056235 -3.9167497 0.15208334 254.16667
-7.7874999 -3.9625676 0.1475862 249.75862
4.8958116 -3.9094326 0.15005404 148.64865
4.9160943 -3.9663012 0.14953966 133.58731
-7.8309569 -3.8522871 0.14954945 252.16484
4.8686886 -3.8430145 0.14911687 135.5065
-7.8726273 -3.7501323 0.1504945 248.61539
4.8327694 -3.7511988 0.1502088 130.8022
-7.9179845 -3.6391506 0.14936988 243.43835
-7.8973889 -3.6898334 0.15000001 248.16667
4.7878919 -3.6396213 0.14981818 136.92424
4.806704 -3.6872592 0.14840738 117.55556
-7.9547629 -3.5470648 0.14915214 242.72827
4.7537708 -3.5533018 0.14911322 135.12265
-8.0052166 -3.4199998 0.14964285 248.50002
-7.9869599 -3.4658718 0.14949091 239.54544
4.695889 -3.4073882 0.13949999 122.5
4.7176933 -3.4583731 0.15101101 143.52748
-8.0325775 -3.3536196 0.14955439 244.38043
4.6747737 -3.3498342 0.14951819 134.90909
-8.0736618 -3.2527246 0.14919782 240.19781
4.6360765 -3.2476413 0.14922656 150.6875
-8.1171818 -3.1468191 0.14944574 247.37349
-8.0966673 -3.1970003 0.14777778 243.55556
4.5889192 -3.1296306 0.14934243 145.80821
4.6050954 -3.1745958 0.14983332 127.28571
-8.2305002 -3.0195 0.127 147
-8.1503067 -3.0625732 0.14517649 233.08824
4.5570521 -3.0491869 0.14971311 140.48837
-8.3009996 -2.9100001 0.123 140
-8.2245331 -2.9457333 0.11660001 196.86668
-8.1888752 -2.9748752 0.10662501 229
4.4990001 -2.9059999 0.103 129.5
4.5192852 -2.9509749 0.14950772 142.30769
-8.323 -2.8529999 0.11775 147.5
-8.2518673 -2.8592002 0.10820001 214.93335
-7.7135539 -2.8285 0.16726317 186.07895
-7.6900001 -2.8322501 0.13150001 146.75
4.4797235 -2.8521371 0.15033814 146.56116
-8.2539997 -2.789 0.113 70
-8.1719999 -2.7609999 0.101 142
-7.7407866 -2.7561424 0.15435712 167.73215
-7.666667 -2.7470002 0.122 137.83334
4.4410729 -2.7536111 0.14846934 140.89116
-7.8051252 -2.61675 0.145125 125.625
-7.775105 -2.6594741 0.13578945 175.3158
4.3899412 -2.6228032 0.14723255 144.06976
4.4125304 -2.6775517 0.15201177 156.45883
4.3627253 -2.5491726 0.14991717 147.40128
-7.1245003 -2.4675 0.15149999 125.5
4.3216801 -2.449223 0.14929715 148.02856
-8.5343332 -2.3170002 0.117 111.66667
-8.4563751 -2.3297501 0.11012501 101.625
-7.9116664 -2.3146193 0.14238094 134.33333
-7.8933334 -2.3323333 0.14066666 89
4.2544475 -2.3443718 0.14975001 103
-8.5422001 -2.2391999 0.11910001 126.4
-8.486166 -2.2534168 0.10583334 108.25
-8.0275002 -2.2154999 0.14050001 56
-7.9371719 -2.25319 0.13174139 170.27586
4.1944194 -2.2126205 0.14964001 187.22
4.2135563 -2.2634387 0.14944297 183.06041
-8.6040001 -2.178 0.127 126
-8.5412502 -2.1581666 0.11408333 112.75
-8.4989996 -2.197 0.102 81
-8.0081177 -2.1307645 0.14852943 175.23529
-7.9775548 -2.1614816 0.13248149 164.77779
4.1715302 -2.1505864 0.14982353 188.45099
-8.4799995 -2.0955 0.114 81.5
-8.0315285 -2.0488532 0.14467648 178.4706
-7.9670005 -2.0576668 0.12266666 137.16667
-7.283 -2.069 0.154 118
4.1350713 -2.0503466 0.14957206 192.22523
-8.1428003 -1.9371003 0.11785001 120.8
-8.073 -1.9564283 0.14434282 168.45714
-7.9603338 -1.9830002 0.12033334 108.66667
-7.355 -1.941 0.154 109
4.0908756 -1.9267533 0.14945082 156.2459
4.1083875 -1.9763495 0.15004718 196.67924
-8.7410002 -1.8365 0.13575 127.5
-8.6734543 -1.8413637 0.12245455 108.81818
-8.2180004 -1.8402501 0.11149999 83.5
-8.1362648 -1.8507777 0.13837777 151.40001
-8.0976667 -1.8953335 0.14666668 143.66667
-7.3779998 -1.848 0.15266667 126.66667
4.062037 -1.8484761 0.14935479 131.00806
-8.7347279 -1.7440909 0.13172728 129.72728
-8.6863337 -1.7652222 0.12 110.88889
-8.1442499 -1.7555625 0.14615624 171.71875
-8.0720005 -1.7396001 0.1268 121
-7.4109998 -1.757 0.152 125
4.0277824 -1.7508591 0.14934888 179.97446
-8.8164997 -1.6565 0.1415 127.5
-8.7434587 -1.6512916 0.12525001 123.375
-8.2097149 -1.6151429 0.15642858 169.71429
-8.174119 -1.6597197 0.147 166.59999
-8.0979996 -1.696 0.13 131
-7.4640002 -1.632 0.153 125
3.9787707 -1.6324165 0.14939454 180.55676
4.0055952 -1.6876035 0.1495055 189.15385
-8.8373337 -1.5420001 0.14216667 141
-8.7751913 -1.5534765 0.12509525 135.85715
-8.2272224 -1.5435001 0.15105556 129.33333
-8.172286 -1.5621428 0.13742858 133.42857
-7.4875002 -1.573 0.155 132
-4.5565004 -1.5083334 0.10700001 112.83334
3.9460812 -1.5498923 0.14971107 180.0114
-8.9029999 -1.402 0.148 149
-8.8286295 -1.4426295 0.12874076 151.48148
-8.7945004 -1.4853333 0.12066667 138.83334
-8.2629995 -1.4476192 0.15276191 129.2381
-8.1906662 -1.4593334 0.13733333 125.33334
-8.073 -1.449 0.1 70
-7.5339999 -1.47 0.156 129
-4.5678129 -1.4796247 0.1055625 106
3.889647 -1.4189376 0.1495104 176.71875
3.9134085 -1.4693828 0.14938951 185.58421
-8.9125004 -1.375 0.138 118
-8.8625841 -1.3775001 0.12975001 139
-8.316 -1.329875 0.157875 125.25
-8.2669296 -1.3597143 0.14692858 132
-3.8473599 -1.32332 0.10636 106.96
3.8641572 -1.3521024 0.14951602 188.42308
-8.9226656 -1.2192222 0.13300002 147.33333
-8.4418249 -1.2350436 0.11969566 118.86957
-8.3589563 -1.2434348 0.14973915 126.52174
-8.2767506 -1.27675 0.1445 138
-4.6369004 -1.2856001 0.10769999 123.9
-4.3330002 -1.2525001 0.14649999 51
-4.2540002 -1.2098 0.1506 54.5
-4.1699414 -1.2082942 0.1652353 55.764706
-3.8794713 -1.2521765 0.10798529 138.13235
3.8253095 -1.2528729 0.14945284 190.71698
-8.9210005 -1.1741999 0.12736 164.48
-8.8463745 -1.126875 0.126375 95.25
-8.4349174 -1.1694167 0.13116668 114.66667
-8.3642111 -1.156 0.14978948 122.42105
-4.7010002 -1.1339999 0.113 132
-4.6949997 -1.143 0.11066668 126.33334
-4.2342501 -1.1540937 0.16721874 70.96875
-4.1584358 -1.1501969 0.1697465 62.802814
-3.9256122 -1.1460097 0.11295147 113.21359
-3.892 -1.179 0.11933333 88
3.7813783 -1.1504351 0.14974846 186.7394
3.7999997 -1.1990834 0.14966668 181.83334
-8.7447996 -1.0926 0.13340001 81.800003
-8.3929996 -1.096 0.15800001 68
-7.6844997 -1.077 0.155 105.5
-4.7253337 -1.0658333 0.10966668 122.33334
-4.2235003 -1.09525 0.17199999 59.5
-4.1462855 -1.0501428 0.19000001 66.428574
-4.0225 -1.08775 0.1375 53.75
-3.964787 -1.053553 0.11803546 106.18439
3.7402229 -1.0501666 0.14935693 191.72752
-4.7748747 -0.93718743 0.10968749 121.125
-4.0127692 -0.92948711 0.10858974 136.28206
-3.9911253 -0.98268747 0.11175 126.3125
-3.7049999 -0.92799997 0.163 51
-3.6693463 -0.93213475 0.13813463 55.057693
3.690649 -0.92718798 0.14932694 197.31732
3.7132578 -0.97764462 0.14960846 198.74698
-8.1020002 -0.83099997 0.105 65
-8.0454998 -0.80949998 0.1015 72.5
-4.818429 -0.83214289 0.11007143 119.28572
-4.7944999 -0.89166665 0.108 114.83334
-4.045033 -0.85036522 0.10950796 132.20636
3.6600914 -0.85119539 0.14933071 196.67192
-8.0050001 -0.79000002 0.108 62
-7.947 -0.76950002 0.104 69.5
-7.8835001 -0.74300003 0.104 70
-7.4486666 -0.78233337 0.13800001 66
-7.3498001 -0.75159997 0.1376 61.600002
-4.8467784 -0.75972217 0.11122223 118.27778
-4.10425 -0.71116674 0.10775 129.66667
-4.0831895 -0.75949049 0.11030187 129.15094
3.5972281 -0.7045002 0.14988637 199.31819
3.6207964 -0.75627023 0.14934203 198.68912
-4.9072142 -0.61849999 0.107 99.285721
-4.8942857 -0.64185715 0.11014286 112.28572
-4.1282029 -0.65040624 0.11054689 126.10938
3.5769911 -0.64915818 0.1494073 202.99084
-7.2934999 -0.50800002 0.1495 92
-4.9305892 -0.55633348 0.10871793 99.897438
-4.1692433 -0.55287147 0.11184286 119.48572
3.538331 -0.55053306 0.14935279 203.8764
-7.2418323 -0.4859167 0.14583334 102.08334
-7.1477237 -0.44738886 0.13955556 102.27778
-7.0563998 -0.41113338 0.13566668 110.93334
-4.9654999 -0.49699998 0.109 102.5
-4.2177696 -0.43694234 0.1116154 115.26923
-4.1954002 -0.48920006 0.11240001 120.8
3.4885499 -0.43250608 0.14887749 205.22531
3.505759 -0.47446212 0.15042152 207.43498
-7.0084286 -0.39300001 0.12814286 106.71429
-6.9490881 -0.36917391 0.12900001 113.26087
-6.8422613 -0.32647616 0.13864286 114.33334
-6.7788334 -0.30100006 0.14691667 124.83334
-4.2530537 -0.34999996 0.11042665 106.29333
3.456089 -0.35233983 0.14945306 208.60878
-6.7304292 -0.28139991 0.14905713 127.37143
-6.6494174 -0.24920833 0.15037501 128.52084
-6.5700016 -0.21699999 0.1515 129.47223
-4.3010001 -0.229 0.114 114
-4.2879043 -0.26354763 0.1140238 108.95238
3.4164307 -0.25094768 0.14943445 209.79213
-6.5131202 -0.19443998 0.14808001 132.72
-6.4454989 -0.16840005 0.14948 134.8
-6.3489203 -0.13020636 0.1490635 134.95239
-6.2853079 -0.10500001 0.15146154 133.92308
3.3734221 -0.14775816 0.14967309 212.28241
3.4030004 -0.19799998 0.14860871 212.26088
-6.233707 -0.085078433 0.14892158 135.90196
-6.1430464 -0.048999999 0.14863077 135.70769
-6.0555387 -0.013749996 0.14982694 135.36539
3.33337 -0.049607672 0.14940454 214.71103
-6.0078578 0.0049999999 0.14885715 136.14287
-5.9523749 0.027313422 0.14968659 136.91045
-5.8548789 0.067439057 0.14892687 138.52438
-5.7857146 0.0955 0.14989287 137.46429
3.2839031 0.068643741 0.14966027 217.32056
3.3093812 0.01933334 0.14971292 219.4213
-5.7331791 0.11649995 0.14969645 135.44644
-5.646009 0.14996432 0.14863095 137.2262
-5.5537052 0.18618317 0.14935216 141.18309
3.254205 0.15013278 0.14963222 221.87521
-5.5065713 0.205 0.15021428 144.85715
-5.4525466 0.22738636 0.1494886 149.80682
-5.354228 0.26699984 0.14980002 148.31429
-5.2878323 0.29383335 0.14783333 149.56668
3.1950681 0.28649649 0.14857145 223.54422
3.2177095 0.23774043 0.14958933 220.44893
-5.2365265 0.31388146 0.14989476 152.98685
-5.1496687 0.34788778 0.14936447 153.36449
-5.0594625 0.38313988 0.14941935 151.29033
3.173491 0.34882471 0.14949614 223.1731
-5.0123754 0.40199998 0.1485 152.875
-4.9526315 0.42509395 0.14946873 152.10938
-4.8491344 0.46539709 0.14958015 153.16031
-4.7812467 0.49189797 0.14936736 155.2653
3.125737 0.44741127 0.14937365 177.16539
-4.7337465 0.51140457 0.14985718 157.52382
-4.6533189 0.54409885 0.14921711 158.83553
-4.5591083 0.58242458 0.14948921 160.84174
3.0967 0.52742535 0.14886169 76.425529
3.1055961 0.50907564 0.14974049 72.436714
-4.5103898 0.60200012 0.1481111 161.77779
-4.4523239 0.62587065 0.1495281 163.60112
-4.3505449 0.6672585 0.14960441 166.05495
-4.286963 0.6932593 0.14927778 168.53703
3.0498195 0.63193268 0.14927402 78.455513
-4.2348132 0.71499282 0.14921625 169.31082
-4.1506453 0.74916506 0.14949469 168.67552
-4.0626559 0.78350633 0.14968024 169.85464
3.2422314 0.70907688 0.16453846 103.30769
3.3624616 0.75761533 0.1506923 104.46154
3.4169998 0.7755 0.108 92.5
-4.0127687 0.80264127 0.14871795 172.46155
-3.9505255 0.8266018 0.14956352 175.94916
-3.8481622 0.86579812 0.14929216 180.5432
-3.7779419 0.89244145 0.14939217 183.23531
-3.7299325 0.91104102 0.14973795 183.97241
-3.6514852 0.94150394 0.14873055 185.95744
-3.5514741 0.98027605 0.15019387 186.11905
3.8339412 0.94967651 0.15673529 91.352943
3.9197445 0.98534918 0.14772092 89.441856
4.2274165 0.9805001 0.14666668 98.166672
-3.5010002 1.0010002 0.11133333 189
-3.4515047 1.0200095 0.14993009 191.28268
-3.3499556 1.061112 0.14954421 196.91161
-3.2773411 1.0903978 0.14908072 198.80746
3.9693546 1.0148227 0.14959498 78.455696
4.1751537 1.0924617 0.16646153 102.23077
4.277 1.00925 0.19299999 100.5
-3.2280998 1.1102381 0.14951904 199.82858
-3.1501064 1.1422445 0.15011564 204.9735
-3.0559461 1.1812671 0.14807235 207.28683
4.2369475 1.1168423 0.15731579 94.684212
4.3091998 1.145 0.13780001 92.800003
4.4276667 1.1880001 0.11866667 91.666672
4.9484997 1.163 0.1365 94
-3.0059047 1.2022905 0.15451612 210.91934
-2.9481218 1.2257086 0.14951986 211.54926
-2.8498876 1.2658182 0.14953288 215.26749
-2.7854559 1.2921124 0.14963481 217.57866
4.4718461 1.2063076 0.13638461 94.153847
4.5216432 1.2269999 0.17107144 81.857147
4.8520002 1.263 0.18599999 87
5.6350002 1.2908335 0.18716668 93.333336
-2.7345982 1.3123471 0.14967027 218.85013
-2.6496127 1.3461373 0.14944993 212.58914
-2.5542798 1.3829244 0.14888307 218.84972
4.7836251 1.333125 0.11075 91.75
4.8594422 1.3695843 0.15207791 87.896103
4.9584999 1.324 0.125 75.5
5.6312008 1.3529334 0.17633335 107.8
-2.5055382 1.4015083 0.15443078 212.38461
-2.4495702 1.4225342 0.14901994 209.97389
-2.3501101 1.4621935 0.14904943 210.81456
-2.2818422 1.4915798 0.15000997 215.5117
4.9380317 1.4155627 0.15062501 75.84375
5.0966001 1.4713999 0.1566 82.800003
5.1331253 1.485625 0.15775 89.375
-2.2308428 1.5123338 0.15087576 214.41615
-2.1495607 1.5442277 0.14925905 216.23909
-2.0520334 1.5815682 0.14917214 216.51894
5.1756253 1.5015 0.17500001 95.5
5.2461429 1.5290716 0.14864287 91.928574
5.3264289 1.559643 0.14992857 90.571434
5.4590006 1.5418001 0.1408 82
5.5419354 1.5211916 0.14991488 97.234039
9.0691214 1.5860798 0.1512 123.07999
-2.0027497 1.6005274 0.15711111 210.66667
-1.9499902 1.6225615 0.14910488 210.62605
-1.850491 1.6640495 0.14995033 204.26242
-1.7804427 1.6919223 0.14872773 190.12048
5.4520001 1.6109999 0.104 85
5.5804443 1.6613333 0.11688888 105.22222
5.6011438 1.6709999 0.16585715 89.571434
9.0415154 1.6509873 0.14898719 166.83333
-1.730134 1.7110105 0.14941299 182.1317
-1.6495805 1.7440865 0.1493749 172.25729
-1.5938638 1.770678 0.14861579 78.677963
5.6900001 1.705 0.1895 88
5.7510004 1.7299999 0.16700001 83
5.8288083 1.7670004 0.14784618 83.92308
8.9840727 1.7693703 0.14792593 129.11111
9.0134573 1.7276366 0.15029545 198.6591
-1.6605564 1.8741815 0.14635572 106.86578
-1.577 1.8033333 0.10300001 76
-1.3740503 1.8752635 0.1522 81.150002
5.9406672 1.8130832 0.14466667 73.416672
6.1036148 1.8713847 0.15076923 97
6.2049999 1.8430001 0.189 77
-1.7077706 1.9823487 0.15178901 116.88073
-1.6871598 1.934011 0.15506309 112.97573
-1.1165522 1.9799175 0.15200001 82.211769
6.2232504 1.9165834 0.14825001 97.416672
6.3505001 1.9645002 0.14966667 97.416672
-1.7345971 2.0502162 0.14534114 117.62016
-0.86045688 2.0759373 0.15153086 79.740738
6.4724998 2.0110836 0.15125 96.416672
6.5713334 2.0507777 0.14866666 89.444443
6.6635003 2.0887001 0.15269999 90.599998
-1.7625325 2.1168838 0.15011695 122.01299
-0.60863364 2.1756432 0.14986832 91.024391
-0.59788013 2.1789732 0.14790668 89.440002
6.7710953 2.1363332 0.14523809 91.904762
6.8511677 2.1752501 0.14983332 72.25
-0.36064476 2.2723813 0.14692107 79.407898
7.1080914 2.2676365 0.15000001 96.272728
-1.919 2.3180001 0.163 73
-0.36000001 2.3 0.116 74
-0.226 2.3410001 0.109 73
-0.10851353 2.3836224 0.14890541 85.216217
7.2909999 2.3359001 0.14690001 97.200005
7.4328003 2.3917999 0.14690001 95.400002
-0.104 2.402 0.17200001 74
0.12684295 2.4809287 0.14801431 84.071426
7.5504007 2.4401002 0.148 91.800003
7.6715002 2.49 0.13 94.5
0.27442858 2.540143 0.10657142 75.285721
0.38815674 2.5704546 0.14868113 84.356758
0.44323483 2.5830667 0.14946768 180.94716
7.7557998 2.5279 0.1478 92.5
7.8694 2.5757999 0.1488 68.200005
-1.4684445 2.6823332 0.18477778 79.111115
0.37562618 2.6601996 0.14854576 104.08778
0.49367049 2.6020107 0.14914288 222.61539
0.54969847 2.6248951 0.14960405 232.6629
0.65007007 2.6665535 0.14936092 233.78976
0.71403992 2.6932313 0.14950509 233.105
8.1244001 2.6707001 0.15109999 95.5
-2.314111 2.7943335 0.146 95
-1.4557334 2.7216668 0.1646 79.466667
0.34828836 2.7452703 0.15068987 121.45989
0.76359659 2.7136326 0.14952299 233.46443
0.84836572 2.7482843 0.14950939 230.79245
0.93466771 2.7838478 0.14929721 218.80415
8.2541113 2.7247777 0.14577778 85.777779
8.3860006 2.7800002 0.13866667 84.666672
-2.3392384 2.847048 0.14471433 103.60715
0.29586732 2.8850594 0.14908431 128.78313
0.3152906 2.8342607 0.15192284 123.56985
0.98503762 2.8046267 0.15018871 214.08804
1.0482116 2.8301802 0.14963001 216.75993
1.1477381 2.8696799 0.14957477 221.07379
1.2098958 2.8946121 0.15212072 219.6293
8.4766665 2.8220003 0.14522223 91
8.543458 2.8746865 0.15034285 220.45714
-2.4016433 2.9907861 0.14907143 103.50001
-2.3803332 2.9414392 0.14024243 105.09091
-0.74666667 2.9846668 0.12 78.666672
0.28157282 2.9251287 0.14680895 131.8427
1.2593844 2.9148188 0.14877963 214.69421
1.3467953 2.9504435 0.14969999 206.16136
1.4326148 2.9851637 0.14851987 200.82451
8.5214615 2.9503038 0.14932582 250.33708
-2.4276175 3.0505974 0.15588237 106.80392
-0.759 3.0086 0.1182 81.200005
1.4842808 3.0056484 0.15185937 198.80469
1.5507187 3.0317063 0.14934674 193.76382
1.6489598 3.0696473 0.14958531 190.88824
1.7098104 3.0937226 0.14957778 190.77779
8.4812803 3.0511935 0.14957692 254.11539
-2.4467614 3.1717286 0.14929305 141.67372
-2.3895628 3.1869376 0.156875 101.25
-0.19 3.1830001 0.155 60
0.15099999 3.1359999 0.15800001 84
1.7593346 3.1138437 0.14948571 182.96735
1.8480451 3.1493061 0.14954296 185.06134
1.9363961 3.1843846 0.14920756 181.41039
8.4416761 3.1508772 0.14994383 254.74158
-2.4020002 3.2000003 0.11700001 162
-2.3454425 3.2227902 0.15188426 153.89711
-2.2485325 3.2597294 0.1477859 154.30287
-2.1744094 3.2883463 0.14913003 153.28
-2.0723333 3.2953336 0.14266667 86.666672
-0.2035 3.2670002 0.1675 70
1.9876186 3.2045481 0.14926189 179.34525
2.0512257 3.2295604 0.14949445 178.53506
2.1483266 3.2679391 0.14932378 178.2213
2.2128751 3.2934377 0.14972499 177.21251
8.3913431 3.2766569 0.149 227.28572
8.4103594 3.2291996 0.1494 246.04445
-2.130389 3.3104455 0.14529251 157.9734
-2.0509872 3.3423882 0.15313196 152.57106
-1.9602458 3.3776064 0.14688134 137.22711
-1.8764999 3.3944998 0.118 91.5
2.2627907 3.3134124 0.14970255 177.77849
2.3483667 3.3475192 0.14934331 175.51501
2.437655 3.3837695 0.14945751 171.49673
8.3618546 3.3502965 0.14942048 225.79546
-1.9031349 3.4020545 0.1535946 127.83784
-1.8510036 3.4233003 0.14781056 134.24791
-1.7493242 3.4609292 0.15290974 137.41103
-1.6775333 3.4886351 0.14192697 137.65694
-1.5899999 3.4932499 0.11625 96.75
0.29244444 3.4778891 0.15955555 62.111111
0.3138679 3.4873588 0.15488678 112.58491
2.4886491 3.4046838 0.14975441 168.85965
2.5507796 3.430676 0.14936899 167.70589
2.6496875 3.4715836 0.14979234 168.82513
2.7110012 3.4970009 0.14858334 169.13889
8.3214102 3.4502628 0.14973749 247.65001
-1.6314586 3.5129628 0.15628935 156.7702
-1.5493034 3.5426612 0.14896041 144.77837
-1.4497738 3.5816748 0.15291944 144.3255
-1.375857 3.5874286 0.14928572 95.857147
0.28532276 3.5567148 0.15105064 103.00633
0.30575868 3.509568 0.1419483 117.74138
2.7581444 3.5162375 0.14952806 167.36
2.8488505 3.5534263 0.14956 161.77715
2.9325945 3.5876739 0.14948836 160.72093
8.2782984 3.5550869 0.15023747 254.02501
8.3000002 3.5020003 0.147 254
-1.4071776 3.6017783 0.14477779 152.68889
-1.349775 3.6246626 0.15112562 151.2968
-1.2499139 3.6646459 0.1486935 137.78181
-1.1741184 3.689784 0.15314075 129.0963
0.24673118 3.6537862 0.14791936 108.19355
2.9775493 3.6056666 0.1493137 160.05882
3.04637 3.633091 0.1498411 156.75497
3.14691 3.6726351 0.14974999 154.01515
3.2055645 3.6958253 0.1405652 151.78261
8.2398834 3.6490123 0.14955696 249.79747
-1.1379962 3.714716 0.14783525 156.00766
-1.0514438 3.748399 0.14960092 146.97758
-0.96609527 3.7815404 0.14597927 136.71785
-0.88250005 3.7930002 0.12850001 98.083336
0.18700001 3.7985001 0.1035 94
0.21447964 3.728894 0.15115446 119.06503
3.2555835 3.7164705 0.15156606 146.60378
3.3481278 3.7549219 0.14813673 143.8889
3.4289443 3.7881517 0.15148613 144.61111
8.1887941 3.7752719 0.15040909 254.75
8.2102032 3.7224782 0.14922725 252.02274
-0.91888535 3.8054094 0.15571429 142.57143
-0.8520087 3.8294983 0.15148294 136.5
-0.75111067 3.8720131 0.15368238 140.05292
-0.69327778 3.8943331 0.14474075 136.09259
0.16636716 3.8486557 0.14114064 113.39844
3.4822395 3.8098686 0.14878261 148.78261
3.5538006 3.8391116 0.14919625 146.40187
3.6485281 3.8778324 0.14974155 140.76405
3.7009335 3.8988662 0.14746669 143.73334
8.1590757 3.8483117 0.14997499 253.55
-0.650258 3.915874 0.14889029 140.32489
-0.55328184 3.9524121 0.14966378 143.12068
-0.46976727 3.9849901 0.15313697 141.35616
-0.38799998 3.9924998 0.14300001 82.5
0.1249872 3.9518845 0.15435898 115.25641
3.7535601 3.9191463 0.14935954 142.88765
3.8453345 3.9551044 0.14958623 142.51724
3.9248574 3.9866612 0.14971429 141.94644
8.118783 3.9488652 0.14951138 245.42046
-0.42171559 4.0081401 0.15508032 147.34306
-0.34872922 4.0341949 0.15003383 130.12923
-0.25080878 4.0732541 0.14930242 131.46913
-0.18777141 4.0953712 0.1536286 109.6
0.08319445 4.0573788 0.15552779 117.88889
0.10291997 4.0072398 0.14867999 121.88
3.9817567 4.0092678 0.14795123 142.34146
4.0489011 4.0361395 0.14942251 141.42253
4.1463895 4.0760984 0.1499756 134.78049
8.078826 4.0496397 0.14901248 241.22501
-0.13796481 4.1198773 0.14889869 133.48457
-0.048285678 4.1570721 0.1530453 138.14635
0.028661236 4.1639748 0.14739183 127.7551
4.2472744 4.1180763 0.14980304 132.8788
4.3508477 4.1608386 0.14896253 133.125
4.4273458 4.1919236 0.1501154 133.26924
8.0386124 4.1498399 0.14940907 239.75
4.475255 4.2105889 0.15023077 132.97437
4.551548 4.2397175 0.14954688 137.625
4.6502862 4.2775545 0.14968255 133.49207
7.9895887 4.2717047 0.15022726 246.1591
8.0087166 4.2240572 0.14931428 238.82857
4.7545638 4.3182087 0.14967743 123.67741
4.8526125 4.3571634 0.14912245 127.04082
4.9209995 4.3855 0.15058333 121.45834
7.9587674 4.3482804 0.15053657 242.08536
4.9687095 4.4056673 0.15045834 116.08334
5.0398726 4.4349346 0.14968084 118.29787
5.1465716 4.478322 0.14737502 128.32144
7.8987784 4.4955554 0.15377779 239.88889
7.9203463 4.4441733 0.14763997 231.46667
5.1989999 4.5 0.18700001 126
5.2605648 4.5244994 0.14908698 117.82609
5.3511996 4.561429 0.14937143 118.62857
5.4165001 4.588182 0.14963634 120.68182
7.8769875 4.5482688 0.14928205 242.85898
5.469728 4.6095004 0.15013635 121.04546
5.5507941 4.6423178 0.14918183 121.34091
5.6445622 4.6789069 0.15103126 122.5625
7.836576 4.649838 0.14977014 252.57471
5.6989999 4.6999998 0.1805 118.75
5.7456303 4.718605 0.14610526 120.44737
5.8443127 4.7585626 0.15018749 123.03125
5.9195447 4.788363 0.14913638 141.04546
7.7876868 4.7714577 0.1515 254.79167
7.8074064 4.7229996 0.14528126 254.21875
5.9782109 4.811368 0.14721052 139.6842
6.0583949 4.8453646 0.15051517 131.66667
6.1574998 4.8856015 0.15013334 117.23334
7.7561178 4.8511395 0.14903799 254.97469
6.2521386 4.9228973 0.15024139 121.10345
6.349792 4.9611034 0.14931034 119.96552
6.4183002 4.9880996 0.14640002 117.4
7.6989999 4.9920001 0.19599999 255
7.717361 4.948513 0.14976922 255
6.4699512 5.0089993 0.15015 117.65
6.5583587 5.0440707 0.14964285 121.57143
6.6594234 5.0837302 0.15388462 120.11539
7.6773872 5.0470514 0.14925641 254.94872
6.6989999 5.0999999 0.121 118
6.7476196 5.1183801 0.14504763 115.57143
6.8465724 5.1574998 0.14889286 119.17857
6.9219999 5.1869998 0.14944445 123.11111
7.6374874 5.1451445 0.14990789 254.18422
6.9784207 5.2082629 0.15036842 129.42105
7.0578904 5.2405 0.14772221 125.44444
7.1409421 5.2747054 0.15076469 117.2353
7.5869617 5.2711921 0.15030769 218.48077
7.6096163 5.2160869 0.14914703 234.32353
7.2339444 5.3148894 0.14883335 106.94444
7.3487511 5.3645411 0.15145832 113.08334
7.4000001 5.3870001 0.11 109
7.5521049 5.3531671 0.14906491 223
7.4638824 5.4125295 0.15182352 115.82353
7.5227776 5.4187031 0.14911111 251.33333
9.7520008 -32.2896 0.2502 255
9.842 -32.256145 0.24971431 255.00002
9.9506006 -32.2136 0.24660002 255
10.039715 -32.178288 0.25042859 255.00002
10.1474 -32.133999 0.25 250
10.203001 -32.112 0.24266669 255
10.261499 -32.086998 0.25224999 255
10.3442 -32.054001 0.24319999 255
10.439333 -32.017166 0.25183332 255
10.56275 -31.970499 0.24325 228.125
10.65675 -31.9345 0.2525 227
10.716 -31.911331 0.25433335 213.33334
10.771601 -31.890598 0.25219998 206.40001
10.854 -31.8575 0.2455 139
10.94775 -31.821249 0.24962501 179.125
11.050999 -31.780251 0.24375001 144.75
11.144124 -31.742626 0.25237501 163
11.2285 -31.710499 0.2475 144.5
11.2675 -31.695499 0.24200001 129.5
11.341375 -31.666876 0.24787499 137.5
11.4486 -31.6248 0.25140002 133.40001
11.505 -31.605 0.205 63
11.542 -31.585003 0.26033336 141.16667
11.652801 -31.542002 0.26800001 151
11.726001 -31.512669 0.25833333 126
11.778 -31.493 0.255 120
11.857 -31.461834 0.26200002 131.66667
11.95575 -31.42375 0.25274998 112.25
12.060401 -31.378401 0.26660001 137
12.150249 -31.341751 0.25274998 115.5
12.23 -31.313751 0.23825 97.25
12.274 -31.290665 0.27700001 167
12.34675 -31.264252 0.2525 127.25
12.445001 -31.225145 0.26085716 162.14287
12.54175 -31.182751 0.24824999 154.25
12.634375 -31.144001 0.25375 187.5
12.717 -31.108999 0.25550002 220.5
12.775749 -31.085999 0.24250001 223.75
12.8502 -31.055801 0.25240001 243.8
12.958428 -31.014431 0.24914286 255.00002
13.0474 -30.979801 0.24800001 255
13.154716 -30.937 0.24714287 255.00002
13.228 -30.908001 0.24400002 255
11.453 -30.858 0.204 62
13.267 -30.8925 0.257 255
13.351572 -30.859146 0.25 255.00002
13.4396 -30.822601 0.24820001 255
11.8 -30.723 0.206 61
13.54625 -30.779377 0.25062501 255
13.659332 -30.734501 0.25183332 255
13.738001 -30.703335 0.25666666 255
13.777 -30.688 0.24833333 255
13.850286 -30.659002 0.24728574 255.00002
13.954 -30.617332 0.252 255
14.052334 -30.578001 0.24883334 255
14.1505 -30.538168 0.24866667 255
14.209 -30.514 0.25400001 255
14.268 -30.49025 0.24425 255
14.346499 -30.457668 0.25066668 255
14.4362 -30.419998 0.24699998 255
14.483 -30.4 0.26199999 255
14.542335 -30.377167 0.24650002 255
14.647142 -30.337145 0.25185716 255.00002
14.720667 -30.309002 0.24700001 255
14.7605 -30.294001 0.25999999 255
14.840167 -30.264166 0.24566667 255
14.953571 -30.220285 0.25514287 255.00002
15.063001 -30.179798 0.25120002 255
15.118 -30.156334 0.24599999 235.33334
11.891 -29.944 0.206 124
15.084499 -29.9965 0.25549999 97.5
15.135 -29.955502 0.24225001 147
15.225668 -29.994667 0.25233334 105.33334
15.0855 -29.626499 0.25999999 81
14.931 -29.231001 0.25049999 74
14.736 -28.76067 0.25866666 73
14.635333 -28.475668 0.25099999 86
14.4855 -28.0975 0.259 84
14.339 -27.727501 0.248 81
14.191333 -27.358 0.25200003 83
14.046 -26.995001 0.24366668 88.666672
7.3751669 -26.720169 0.24816668 183.5
7.4250007 -26.704 0.23800001 255
7.4740005 -26.685669 0.25983334 255
7.5517502 -26.65675 0.24599999 255
7.6534443 -26.616667 0.25233334 255
7.9899998 -26.648001 0.259 85.333336
13.9115 -26.654499 0.248 90
7.7512503 -26.578249 0.25024998 254.125
7.8483338 -26.539 0.24700001 253.88889
7.9130001 -26.5135 0.25150001 255
12.997 -24.827 0.27700001 79
13.026 -24.856001 0.21700001 73.666672
12.993 -24.743 0.26800001 86
13.049376 -24.736874 0.25837499 76.25
13.13 -24.751333 0.22166668 85.333336
13.126499 -24.6945 0.259 94.5
13.042 -24.460999 0.24949999 89.5
12.943001 -24.202499 0.242 85
12.938 -24.194 0.294 78
12.815001 -23.891003 0.249 88.333336
12.717 -23.636999 0.22400001 90
12.606 -23.360001 0.227 88
12.489 -23.073999 0.22 94
12.384001 -22.811337 0.24133334 91.666672
12.285 -22.561749 0.249 91.75
12.202667 -22.343 0.25400001 92.333336
12.098 -22.085667 0.24533334 87.666672
11.997999 -21.838001 0.22150001 90
12 -21.841 0.26800001 89
11.917666 -21.626999 0.25800002 87.666672
11.825667 -21.396002 0.25066668 91
5.7890005 -21.127998 0.25800002 93.333336
11.731667 -21.163666 0.24233334 86.666672
5.4770002 -20.806334 0.24600002 255
5.68925 -20.866001 0.24675 92.5
5.536643 -20.784641 0.2497143 255.00002
5.61625 -20.753 0.25262499 253.25
11.001001 -19.786333 0.25066668 255
10.882 -19.514999 0.271 70
10.919 -19.582001 0.244 62
10.8626 -19.434799 0.2588 180.2
10.822666 -19.238003 0.25 163.33334
5.0024996 -19.103001 0.241 236.25
4.9312501 -18.927502 0.24675 61
10.596 -18.890333 0.248 175
10.667455 -18.855911 0.24945454 195.72728
10.749638 -18.825455 0.2500909 205.81819
10.782249 -18.7775 0.24399999 111.5
4.829 -18.630501 0.2475 255
4.7940006 -18.59325 0.252 71
10.707 -18.593 0.25 121.66667
10.634334 -18.413 0.26899999 65.333336
4.7007504 -18.3255 0.25125 57
10.627 -18.399 0.215 63
10.6 -18.299749 0.24900001 148.75
4.6405001 -18.185751 0.2545 204.5
10.53125 -18.12875 0.24349999 71
4.5472503 -17.914501 0.25349998 87.5
10.471001 -17.972334 0.248 71
4.5124002 -17.870802 0.24700001 96.400002
10.412499 -17.820999 0.25424999 70.5
4.4324002 -17.648199 0.24779999 60.200001
10.35575 -17.672749 0.245 72
4.1545005 -17.516556 0.25027773 183
10.302 -17.53075 0.2385 80.5
4.07125 -17.41 0.24825001 100.25
4.250773 -17.476542 0.2507273 196.36365
4.3363075 -17.443771 0.24738464 169.84616
10.244249 -17.3825 0.25525001 68
4.0155001 -17.2675 0.25075001 89.25
10.189751 -17.240501 0.2485 68.25
3.9592502 -17.123751 0.25299999 95.5
10.135 -17.098751 0.24149999 69.25
3.9051998 -16.987 0.24600001 94.599998
10.0825 -16.961248 0.25875002 71
3.8518002 -16.852201 0.24860001 96.200005
10.0345 -16.83275 0.25274998 76
9.9802494 -16.694 0.24425 78.75
0.232875 -16.505625 0.26200002 210.625
9.9265003 -16.556499 0.23999999 77.5
0.27000001 -16.490364 0.24381818 239.63637
0.34821743 -16.45796 0.24808696 237.69566
0.44050002 -16.420202 0.24880004 238.7
9.8794994 -16.431 0.25725001 78.75
0.49200001 -16.39975 0.25 237
0.55260003 -16.375839 0.25052002 242.72
0.65316671 -16.336334 0.24995837 242.41667
0.72500008 -16.307798 0.2493 245.8
9.8325005 -16.307249 0.252 81
0.77500004 -16.287428 0.25021431 243.85715
0.85519987 -16.25424 0.25035998 242.23999
0.92550004 -16.2288 0.2465 218.7
9.7805004 -16.1745 0.245 80
9.6949997 -15.987599 0.24980001 89.599998
9.7097492 -15.966749 0.25400001 73
11.543334 -15.953334 0.21800002 146.33334
9.6665001 -15.850249 0.24900001 75.75
2.0589526 -15.765428 0.24842855 246.90477
2.1449201 -15.730719 0.25131994 247.87999
2.2019999 -15.708 0.24899998 247.8
9.6689005 -15.787999 0.25080001 121.3
9.7560902 -15.767999 0.25049999 163.77274
9.8511868 -15.728061 0.2498125 162.125
9.9060001 -15.7056 0.24700001 156.60001
2.2590005 -15.684719 0.24815997 246.95999
2.3540001 -15.646481 0.24864 251.23999
2.4392998 -15.612399 0.2471 252.40001
9.9625874 -15.682412 0.2507059 152.94118
10.046999 -15.648529 0.24805883 165.64706
10.1042 -15.6258 0.25099999 169
2.4860001 -15.593001 0.24600001 253
2.5521998 -15.566237 0.24749999 251.53334
2.6568463 -15.522654 0.25115386 252.84616
2.7488 -15.48332 0.25071993 252.51999
2.8039999 -15.457601 0.2538 246.2
3.5156 -15.4704 0.252 89.200005
2.8460803 -15.357841 0.24908 242.87999
2.9388077 -15.32031 0.24969232 247.80771
3.4660001 -15.340601 0.2552 84.599998
10.897 -15.329 0.296 141
10.931499 -15.336665 0.24675 152.58334
11.081668 -15.342667 0.26700002 160
11.10875 -15.32875 0.25125 147
2.9945998 -15.298401 0.24660002 236.8
3.0502801 -15.277842 0.24991998 236.28
3.1529377 -15.23928 0.24868748 243
3.2260003 -15.2107 0.25390002 247.90001
3.414 -15.2015 0.22600001 86.5
10.975144 -15.272786 0.24764284 79.64286
11.092001 -15.275667 0.25866669 148.33334
11.14639 -15.245054 0.24672219 161.38889
11.229584 -15.2125 0.25433335 160.75
3.2723336 -15.192467 0.24960001 243.66667
3.3471537 -15.162772 0.24992308 239.19232
3.4133334 -15.198001 0.27466667 87.666672
11.280715 -15.188858 0.24500002 159.71429
11.347354 -15.162766 0.25147057 160.82353
11.445001 -15.121999 0.25155559 159.33333
11.4935 -15.0985 0.22999999 157
11.552648 -15.076118 0.24876471 158
11.645707 -15.038235 0.24788234 161.29411
11.737247 -15.013167 0.24633333 140
11.805 -15.032 0.27900001 86
11.747667 -14.997001 0.26066667 152
11.842525 -14.966619 0.2492857 163
11.946295 -14.923294 0.25023532 162.82353
12.01 -14.9035 0.24250001 145.75
12.059462 -14.890924 0.25307694 144.23077
12.123875 -14.871876 0.24437499 122.625
8.6764011 -13.344001 0.24800001 66.599998
8.6342001 -13.242801 0.24280003 57.799999
8.6084003 -13.1668 0.25600001 83
8.5893011 -13.0838 0.24879999 177.8
8.6500807 -13.050879 0.24931997 245.84
8.7339983 -13.0172 0.25020003 242.7
8.7810001 -12.999 0.2472 243.8
8.8472347 -12.973302 0.24820001 244.63335
8.9510002 -12.93272 0.24772003 246.36
9.0175009 -12.907501 0.25509998 244.5
9.0655327 -12.889334 0.24533334 243.40001
9.1135006 -12.8715 0.25429997 240.2
1.2589999 -9.9326887 0.25337499 113.375
0.58500004 -9.8249998 0.24949999 232
0.62103033 -9.8110294 0.24948485 246.36365
0.66999996 -9.7916889 0.25009373 244.96875
0.74782413 -9.7598791 0.24921621 241.70271
0.84807819 -9.7182827 0.24785937 238.8125
1.1791669 -9.7441664 0.24870831 121.33334
1.2141176 -9.7798843 0.25158823 154.23529
0.88999999 -9.6999998 0.26750001 242
0.94932878 -9.6758385 0.24905486 242.75342
1.0492152 -9.632967 0.2498 240.70769
1.1217276 -9.6251783 0.24993938 176.48485
6.4329367 -7.8508763 0.25099999 114.125
6.382 -7.7288752 0.25225002 118.5625
6.4070005 -7.7891254 0.24487498 116.75
6.349751 -7.6505613 0.24524999 120.0625
6.3139586 -7.559 0.24975002 110.75
6.2889996 -7.4597001 0.24916668 96.100006
6.3073163 -7.4424214 0.25273681 153.21053
6.2715559 -7.3485007 0.24755557 100.33334
6.2336249 -7.2566252 0.25045833 121.25
6.1855888 -7.1375885 0.2485294 148.76471
6.2107778 -7.1934443 0.25 125.77778
6.1537199 -7.0553598 0.24868001 123.56
0.063260861 -6.9322309 0.25014487 96.565216
6.0970006 -6.919858 0.23457146 101.85715
6.1148424 -6.9630527 0.25247371 115.57895
0.024571421 -6.8256006 0.25077137 82.542854
6.074192 -6.8584232 0.24953847 132.57693
-0.012499998 -6.7417927 0.24825001 87.875
0.0070000002 -6.7983637 0.25054547 132.81819
6.0332766 -6.7571373 0.25489655 121.93103
-0.059031576 -6.6607451 0.24951579 104.23158
5.9805007 -6.6289506 0.24594998 107.1
6.0065379 -6.6881547 0.24446157 118.07693
-0.11518366 -6.5425525 0.25040817 65.653061
-0.095000014 -6.5887504 0.25050002 60.166668
5.9502225 -6.5514817 0.24962965 108.2963
-6.769155 -6.4427409 0.24986209 242.08621
-6.6444702 -6.461823 0.24641177 110.17647
-6.591125 -6.4328747 0.251625 74.25
-0.15425329 -6.4450421 0.24954666 69.160004
5.8889999 -6.4025002 0.2545 106.75
5.9145555 -6.4629998 0.25088888 113.03704
-6.8146453 -6.3329601 0.24935293 229.68628
-6.7930002 -6.3848081 0.2485 239.19232
-0.20533334 -6.319612 0.25955555 76.333336
-0.1881842 -6.3556843 0.24963154 61.157894
5.8684134 -6.3493452 0.24696548 113.27586
-6.8510132 -6.2473121 0.25066236 225.77922
