# .PCD v0.7 - Point Cloud Data file format
VERSION 0.7
FIELDS x y z intensity
SIZE 4 4 4 4
TYPE F F F F
COUNT 1 1 1 1
WIDTH 1168
HEIGHT 1
VIEWPOINT 0 0 0 1 0 0 0
POINTS 1168
DATA ascii
-1.22 -10.748833 -0.36966667 51.583336
-1.1677272 -10.722135 -0.33663636 51.5
-9.7366667 -10.616667 -0.34866667 95.333336
-9.6660004 -10.66 -0.34949997 92.75
-9.5827503 -10.64875 -0.35550001 107
-8.424469 -10.624764 -0.35729411 162.29411
-8.3632116 -10.669633 -0.3714737 190.10527
-2.2449999 -10.6035 -0.37150002 51.5
-1.335 -10.674 -0.39700001 50
-1.1163334 -10.687 -0.31666666 52
-1.0709 -10.642801 -0.31730002 51.299999
-9.8346004 -10.5308 -0.35139999 93.800003
-9.7523336 -10.553667 -0.36100003 97.333336
-9.6824999 -10.570499 -0.36250001 98.5
-8.5332632 -10.530632 -0.37189475 190.10527
-8.4692135 -10.581858 -0.36971432 192.07144
-2.2260001 -10.528636 -0.33645457 53.909092
-2.188 -10.529 -0.368 50.5
-1.5415 -10.5425 -0.3915 50
-1.0172668 -10.548868 -0.34513336 52.133335
-0.99279994 -10.5148 -0.37979999 52.799999
-0.61583334 -10.526667 -0.34666666 51.166668
-0.57730001 -10.5507 -0.38369998 51.299999
-10.034 -10.403 -0.35299999 91
-9.9289999 -10.425 -0.35100001 99
-9.8788004 -10.4558 -0.3594 92.200005
-9.79 -10.461 -0.35800001 92
-8.7200003 -10.403999 -0.34149998 161
-8.6423225 -10.437449 -0.35732257 174.29031
-8.582778 -10.485889 -0.37222221 192.33333
-2.201 -10.494 -0.33700001 54
-2.1451948 -10.455388 -0.33733335 58.888889
-2.098 -10.460251 -0.3495 53
-1.619 -10.453751 -0.35299999 50
-1.5775 -10.469999 -0.3935 50
-0.72252166 -10.439782 -0.34339127 52.652176
-0.66357148 -10.469858 -0.31700003 51.000004
-0.59899998 -10.459 -0.38600001 52
-10.032 -10.375 -0.35600001 90
-9.9382496 -10.356001 -0.36124998 95.25
-8.8220005 -10.313 -0.33399999 133.5
-8.7518473 -10.342845 -0.36965382 192.03847
-8.6892004 -10.391 -0.3752 232.60001
-0.67914289 -10.364143 -0.35285717 53.64286
-8.9208336 -10.210167 -0.36216664 142.66667
-8.8530788 -10.25868 -0.36655998 164.31999
-8.7983341 -10.298334 -0.38299999 195.33334
-2.595 -10.24 -0.303 51
-1.914 -10.206 -0.37200001 50
-0.63209522 -10.236191 -0.36461905 51.476192
-9.0232506 -10.118 -0.36849999 174.83334
-8.9590006 -10.1668 -0.37340003 166.5
-2.7496002 -10.1288 -0.31380001 50.400002
-2.6040001 -10.112 -0.308 54
-2.5447502 -10.134376 -0.30975002 52.75
-2.4776666 -10.143333 -0.3183333 53.333332
-1.9614286 -10.165715 -0.33914289 50.000004
-1.8682499 -10.14115 -0.36600003 53.299999
-1.79 -10.102 -0.396 52
-0.65077782 -10.195667 -0.3787778 53.888889
-9.1345882 -10.026883 -0.36682355 146.35294
-9.0709991 -10.073734 -0.37453339 178.26668
-2.714 -10.069 -0.30599999 51
-2.6523001 -10.0137 -0.31219998 50.799999
-2.56675 -10.074249 -0.31424999 50.75
-2.118 -10.036 -0.36300001 51
-2.0792499 -10.005751 -0.37599999 51
-1.8248945 -10.064895 -0.34000003 56.947369
-1.7765882 -10.028529 -0.35929412 56.764706
-1.1339999 -10.04 -0.39899999 50
-9.3170004 -9.9060001 -0.34900001 98
-9.2392855 -9.9360008 -0.37161908 149.28572
-9.175375 -9.9825001 -0.38024998 168.625
-2.6110001 -9.9860001 -0.32499999 50
-2.5806665 -9.9543333 -0.31266665 51
-2.059 -9.9420004 -0.36500001 51
-1.7355 -9.9679232 -0.33688465 58.73077
-1.6608058 -9.9314165 -0.34419441 56.694447
-1.5763334 -9.9118338 -0.36650002 53
-1.443875 -9.9093742 -0.34262499 52.875
-1.3126667 -9.9036674 -0.31300002 51
-1.2654545 -9.9243193 -0.36936367 51.363636
-1.1900001 -9.9700003 -0.40000001 50
-9.3476954 -9.8413038 -0.37343478 158.21739
-9.2888002 -9.8860006 -0.38299999 172.60001
-2.5408335 -9.8513346 -0.32550001 50.833336
-2.483 -9.8470001 -0.315 50
-2.3970001 -9.8199997 -0.33500001 50
-1.6370001 -9.8766375 -0.37681818 54.090912
-1.5779999 -9.8762865 -0.37314287 52.57143
-1.4259287 -9.8707867 -0.34378573 51.14286
-1.35431 -9.853549 -0.35343668 52.140842
-1.29125 -9.89575 -0.38299999 51
-9.4560328 -9.7435799 -0.36232254 155.03226
-9.3975 -9.7924995 -0.38749999 180
-2.602 -9.7010002 -0.329 50
-2.5313334 -9.7646666 -0.33500001 50.666668
-2.4503 -9.7755995 -0.32500002 50.900002
-2.395 -9.7580004 -0.32300001 50
-1.5412859 -9.7335711 -0.38700002 51.000004
-1.4677058 -9.7427654 -0.38370588 50.705883
-9.6016674 -9.6106672 -0.38033336 221.66667
-9.5510921 -9.6501818 -0.34906814 246.88637
-9.4948339 -9.6970005 -0.34350002 243.16667
-2.6362855 -9.6142864 -0.31357142 50.000004
-2.5693333 -9.6593342 -0.32733333 50.333336
-2.3210001 -9.6385002 -0.3105 50
-1.6192499 -9.6322508 -0.39125001 51
-1.556375 -9.677 -0.384 51
-9.7123346 -9.5161686 -0.35208333 247.58334
-9.6530495 -9.5668039 -0.35107312 242.65852
-2.5929999 -9.5240002 -0.30700001 50
-2.27075 -9.5487499 -0.31 50.25
-1.714 -9.5020008 -0.3915 51
-1.6643573 -9.5397854 -0.39007148 50.928574
-9.8236475 -9.4202356 -0.34947059 244.41176
-9.7651672 -9.4702291 -0.35088569 248.82857
-2.2140002 -9.4646664 -0.30599999 50.333336
-1.8405752 -9.4294004 -0.35095003 51.900002
-1.7633997 -9.4629211 -0.38027996 51.119999
-1.6849999 -9.4449997 -0.37400001 51
-9.9294004 -9.3331013 -0.35049999 233.90001
-9.8696547 -9.3822184 -0.34969562 233.43478
-2.0009999 -9.3074999 -0.315 52
-1.9466925 -9.3189631 -0.36207691 51.42308
-1.8712633 -9.3707352 -0.38247365 51.36842
-10.040915 -9.2379169 -0.35011113 244.75
-9.9819994 -9.2886686 -0.35072222 237.38889
-2.126143 -9.2220726 -0.32064286 50.57143
-2.0465972 -9.2532988 -0.34382084 51.940296
-1.9728501 -9.2777996 -0.38049996 51.25
-10.149288 -9.1431904 -0.35069048 239.5
-10.090888 -9.1945543 -0.34566668 230.77779
-2.2155457 -9.1168184 -0.33500004 51.18182
-2.1512325 -9.1486788 -0.35705358 51.357143
-2.0765884 -9.1778831 -0.38388234 51.294117
-10.310001 -9.0060005 -0.34366664 255
-10.248978 -9.0573416 -0.35089365 254.23404
-2.3276665 -9.0325832 -0.3335 51.5
-2.2543557 -9.0568304 -0.35794914 51.288136
-2.1821001 -9.0813999 -0.38789999 51
-10.414824 -8.9161768 -0.35329416 254.88235
-10.355355 -8.9672346 -0.35041177 255
-2.4321055 -8.9350805 -0.33497369 51.315788
-2.3591819 -8.9612722 -0.36549091 51.236362
-2.2850001 -8.9863997 -0.39340001 51
-10.527875 -8.8185015 -0.35162503 248.125
-10.46755 -8.8706541 -0.35244825 249
-2.4358749 -8.8801889 -0.38031247 51
-2.3920002 -8.8950005 -0.3955 51
-10.63196 -8.7282391 -0.35168001 236.67999
-10.578774 -8.774045 -0.34813634 241
-10.741115 -8.6355009 -0.35005885 252.38235
-10.680587 -8.6867056 -0.35035297 249.11765
4.0902104 -8.6762114 -0.35626313 51.684212
4.1333728 -8.6359997 -0.34859321 52.745762
-10.85013 -8.5441303 -0.34963045 250.13043
-10.788334 -8.5955009 -0.35633335 254.16667
4.1730323 -8.5721922 -0.35403222 52.419353
4.2211738 -8.5480003 -0.37491307 52.782608
4.3325 -8.5060005 -0.30699998 163
-11.046309 -8.4083843 -0.35307691 106.38462
-10.916861 -8.4539995 -0.3512069 145.10345
4.1498003 -8.4499998 -0.31580001 51.200001
4.2490001 -8.4869995 -0.39300001 52
4.3746529 -8.4519405 -0.3411428 224.79591
4.4099998 -8.4080629 -0.35137501 254.625
-11.140236 -8.3099422 -0.347 147.88235
-11.074999 -8.3494997 -0.35150003 142.8
-10.9828 -8.3951998 -0.35160002 95
-10.874835 -8.345417 -0.35441667 68.333336
4.138 -8.3830004 -0.30899999 51.75
4.4589152 -8.3502407 -0.35058331 255
-11.2334 -8.2083998 -0.34599999 145.2
-11.1757 -8.2852993 -0.3461 159.10001
4.5409412 -8.2533903 -0.34988239 255
-11.337889 -8.1453896 -0.35966665 156.11111
-11.272417 -8.1888332 -0.34849998 130
4.5906668 -8.1938896 -0.34972221 254.77779
4.6347203 -8.1413765 -0.35073334 254.41335
-11.5128 -8.0106001 -0.34580001 151.8
-11.447323 -8.0461445 -0.35278574 158.5
-11.379625 -8.0939999 -0.34562501 145.75
-2.2320004 -8.0168419 -0.34552631 134.05263
4.685813 -8.0801582 -0.35215622 254.25
4.7261343 -8.0327005 -0.3496227 254.58492
-11.509 -7.9990001 -0.40000001 176
-2.9357772 -7.9327765 -0.35022223 85.555557
-2.3304186 -7.9267621 -0.35119402 230.37312
-2.2685738 -7.9758229 -0.35092643 214.98529
4.7755394 -7.9751158 -0.35017306 255.00002
4.8195353 -7.9237218 -0.35053492 245
-10.618 -7.8449998 -0.331 74
-2.9031112 -7.8896661 -0.34888887 68.777779
-2.860276 -7.834311 -0.35220689 69.413795
-2.4451416 -7.8368764 -0.35155669 234.71698
-2.3800967 -7.887558 -0.34807312 232.39023
3.8670001 -7.8719997 -0.39899999 51
4.8697376 -7.8617544 -0.35088414 242.91306
4.9099998 -7.8130012 -0.34688887 243.66667
-10.7572 -7.7428002 -0.34829998 109.1
-10.63425 -7.75425 -0.35075 79
-2.8187003 -7.7807999 -0.35050005 77.800003
-2.7767498 -7.7273221 -0.3500714 105.46429
-2.6125004 -7.7080507 -0.35034999 237.60001
-2.5521402 -7.7539921 -0.35074142 235.50862
-2.4960001 -7.7970004 -0.34977782 234.88889
3.8563335 -7.7348337 -0.32950002 50.333336
3.9349999 -7.7979999 -0.377 50
4.9589796 -7.7519011 -0.35119152 237.5851
-10.946 -7.6279998 -0.39399999 93
-10.77975 -7.6697502 -0.33125001 114.5
-2.7191377 -7.6564145 -0.34968963 148.24138
-2.6599212 -7.6723371 -0.35037497 222.35228
3.8537648 -7.6598244 -0.34147054 50.411766
5.0437412 -7.6491385 -0.35088539 242.39584
3.8555 -7.5872498 -0.37625 50.25
5.0930552 -7.5888333 -0.35311112 244.66667
5.1351895 -7.5377207 -0.3505443 251.87343
5.1842284 -7.4781728 -0.34985715 255
5.2117939 -7.4448261 -0.35555172 234.62068
-10.029764 -7.3757644 -0.35576472 61.411766
-9.9872494 -7.3210001 -0.32725 67
3.4625003 -7.1305008 -0.39416668 51
3.5210004 -7.1267147 -0.39357147 50.857143
3.9219999 -7.158 -0.40000001 51
3.3653331 -7.0643334 -0.39522225 50.888889
3.411 -7.0650001 -0.39899999 51
3.5355 -7.0830002 -0.3955 50
1.156 -6.7020001 -0.375 56
1.163125 -6.6480002 -0.37699997 55.375
3.5747502 -6.6526256 -0.37612498 50.625
-13.339 -6.5110002 -0.391 123
-13.270624 -6.5190001 -0.35049999 146.9375
1.1890001 -6.5341673 -0.38233337 54.5
1.2295557 -6.5287776 -0.37644443 52.444447
3.5940001 -6.598 -0.37400001 51
3.6164286 -6.5697145 -0.37600002 51.285717
-13.4375 -6.4134998 -0.34783337 142.16667
-13.345464 -6.4509239 -0.34030771 165.61539
-13.290335 -6.4873343 -0.35233331 151.33334
1.197 -6.4990001 -0.38699999 54
1.2396111 -6.4697781 -0.38288888 52.333332
-13.514801 -6.3176003 -0.32820001 166
-13.458358 -6.353786 -0.3302857 171.50002
-13.399 -6.395 -0.30500001 183
-9.201334 -6.3783336 -0.37900004 51
-9.1707783 -6.3373332 -0.34811109 67
-13.625125 -6.2212501 -0.32824999 167.625
-13.563359 -6.2683578 -0.32807145 174.92857
-9.0698748 -6.237 -0.34925002 69.25
1.5423334 -6.2363334 -0.39466667 52.333336
3.1283336 -6.284667 -0.39633331 50.333336
3.2750001 -6.2150002 -0.36399999 54
-13.643999 -6.1885004 -0.31300002 164
-9.0265331 -6.1814666 -0.35193333 130.53334
-8.9857502 -6.1292505 -0.35100001 58.75
0.99800003 -6.1059999 -0.336 53
1.5285001 -6.1984997 -0.39700001 53
3.1705666 -6.1328878 -0.34813204 54.547169
3.2229586 -6.1515837 -0.37095833 55.041668
-8.9398127 -6.0733738 -0.35206249 126.875
-8.8796253 -6.0078745 -0.35325 58.125
0.95483339 -6.0506663 -0.34229168 53.083336
1.0097144 -6.0685716 -0.33885714 54.428574
3.197 -6.0120001 -0.38499999 50
3.2393615 -6.0417876 -0.37629789 53.148933
-8.8317137 -5.9512143 -0.34928572 155.92857
0.97659999 -5.9664001 -0.35069999 53.600002
1.0073333 -5.9276667 -0.35133335 55
1.1950001 -5.9029999 -0.33700001 53
3.1945 -5.9905 -0.36449999 50
3.2770712 -5.9591193 -0.37302378 51.904762
-8.744525 -5.8527136 -0.35190472 82.666672
1.0136001 -5.8698001 -0.3558 54.400002
1.199 -5.8870001 -0.345 52
1.2332941 -5.8353529 -0.34623533 53.941177
-8.6577377 -5.7515268 -0.34447366 87.052635
1.1796001 -5.7765999 -0.35599998 52.600002
1.2542188 -5.7486882 -0.35143748 55.0625
1.3132858 -5.7205715 -0.33900002 55.14286
-8.6084003 -5.6989999 -0.36900002 60.799999
-8.5615625 -5.6450624 -0.35162497 102.3125
0.72249997 -5.6389999 -0.30449998 53.75
1.2747144 -5.6712861 -0.35542861 55.07143
1.3500769 -5.6604228 -0.34888458 53.653847
1.4232501 -5.635417 -0.34841666 52.666668
2.6630001 -5.6538 -0.39139998 52
-8.5256252 -5.598 -0.35225001 211.5
-8.4741249 -5.5414376 -0.35431251 79.5
0.66437501 -5.5298748 -0.3195 54
0.71724999 -5.5510001 -0.30737501 53.5
1.3767 -5.5388002 -0.36180004 52.600002
1.4249412 -5.5391755 -0.36164707 52.470589
-8.418499 -5.4827499 -0.35587502 59.375
-8.3758125 -5.4323754 -0.35093755 65.3125
0.48112124 -5.4476967 -0.38663641 59.909092
0.54183793 -5.4365683 -0.35340542 55.081081
0.64934617 -5.4448848 -0.32550001 53.23077
0.7434001 -5.4391341 -0.30753335 54.133335
0.80149996 -5.4414997 -0.30250001 54.5
1.3890001 -5.4990001 -0.366 53
1.419 -5.5 -0.373 53
-8.3171253 -5.3644996 -0.34674999 110.25
-8.27075 -5.3127499 -0.34900001 54.875
0.54837775 -5.3516011 -0.3710334 58.811111
0.646465 -5.3470922 -0.33451161 54
0.74505258 -5.3496313 -0.31676316 53.921055
-8.2317495 -5.2658129 -0.35143751 116.4375
-8.1949997 -5.2199998 -0.35412496 119.625
0.58159995 -5.2739997 -0.38182506 61.450001
0.63799989 -5.2414503 -0.35984945 58.19355
0.74854344 -5.2460651 -0.32665217 54.02174
0.82461119 -5.2378893 -0.31522223 53.944447
-8.134347 -5.1538253 -0.34813043 76.304352
-8.1000004 -5.1170001 -0.39050001 55
0.66813028 -5.1587391 -0.37765223 61.934784
0.74032897 -5.1426849 -0.34648684 56.526318
0.84080476 -5.1435843 -0.32426822 54.024387
0.90733331 -5.1096668 -0.317 54
-8.0535946 -5.0593328 -0.35033333 96.777779
0.75589293 -5.0556173 -0.37343511 62.053436
0.84598649 -5.0450277 -0.33983779 55.797298
0.94083333 -5.038527 -0.32436109 54.166668
1.0161999 -5.0150003 -0.31900001 54
1.201 -5.0190001 -0.301 54
-7.9581523 -4.951333 -0.34999999 95.333336
0.792 -4.9925003 -0.38910002 65.099998
0.85012311 -4.952075 -0.37196577 62.636986
0.94538969 -4.9461818 -0.33935067 55.714287
1.0466347 -4.9433646 -0.32455772 54.73077
1.1332668 -4.9185338 -0.31893331 54.533337
1.2726667 -4.961 -0.30233333 54
-7.8634009 -4.8435202 -0.35123995 59
0.88783342 -4.8898888 -0.38944441 66.666664
0.95100629 -4.8510833 -0.37184617 63.506413
1.0454578 -4.8463016 -0.34319276 56.168674
1.139423 -4.8449426 -0.33078846 54.596157
1.201 -4.8070002 -0.33000001 54
-7.8109097 -4.7821817 -0.34127274 57.36364
-7.7706804 -4.73212 -0.35335997 83.879997
0.98857147 -4.7907143 -0.39128575 69.214287
1.0537468 -4.7542152 -0.375552 65.084419
1.144042 -4.7434525 -0.35201052 57.368423
1.2190001 -4.7512574 -0.34054843 55.258064
1.0966667 -4.6956668 -0.39466667 73.666672
1.1560163 -4.6669006 -0.38112196 67.780487
1.2072173 -4.654305 -0.37030441 62.608696
7.6785183 -4.4632673 -0.35271671 231.21667
7.7167206 -4.4163613 -0.35055557 254.86111
-7.2203336 -4.3669448 -0.35144439 100.94444
-7.1737905 -4.3139477 -0.35047367 113.21053
7.7637124 -4.3595653 -0.35007507 254.45
7.8037786 -4.3113337 -0.35072222 255
-7.1289496 -4.2628503 -0.34975001 117.25
-7.0956001 -4.2247996 -0.35179999 117.6
7.8550406 -4.2498202 -0.35098121 254.95284
-7.0428686 -4.163764 -0.35099995 117.94737
-6.9910007 -4.1030002 -0.34955555 122.11111
3.1900001 -4.1332502 -0.33250001 58.75
3.2146003 -4.1534672 -0.32766667 60.666668
7.9390817 -4.1488576 -0.35068366 254.94897
-7.0269632 -4.0240612 -0.34992501 197.5125
-6.9864612 -4.0704622 -0.35007694 222.64102
3.1589999 -4.0960002 -0.336 58
7.9906287 -4.0860372 -0.35018516 250.88889
8.0313997 -4.0368581 -0.35035715 246.18571
-7.1438642 -3.9312413 -0.35051131 238.14774
-7.0818806 -3.9789402 -0.35037997 221.59999
8.0795002 -3.9790006 -0.35120457 247.95456
8.1202946 -3.9294994 -0.35229629 253.07408
-7.2476063 -3.8415096 -0.35050011 236.72414
-7.1887889 -3.8919477 -0.35205263 236.8421
3.1853333 -3.8496666 -0.345 66.666672
3.2178891 -3.8773334 -0.33677781 66.444443
8.1722527 -3.8666909 -0.3501831 254.39436
8.2136517 -3.8169994 -0.35057697 255.00002
-7.7293062 -3.7355876 -0.3493067 181.12001
-7.6314545 -3.7606366 -0.35990909 134.13637
-7.5615001 -3.75 -0.3335 56.5
-7.4111047 -3.7046838 -0.35073683 182.36842
-7.3505268 -3.7542248 -0.35022607 213.26086
8.2631369 -3.7573185 -0.35067052 254.64774
8.3046675 -3.7078888 -0.35111111 254
-7.8189774 -3.6236596 -0.35042551 162.8085
-7.7759128 -3.6715341 -0.3513104 172.25862
-7.4287505 -3.6926668 -0.35400003 147.08334
8.3502827 -3.6529565 -0.35060412 252.875
-7.924799 -3.5221453 -0.35059997 149.43636
-7.8681073 -3.5749538 -0.34998459 161.8
8.3959999 -3.598 -0.34722224 253.22223
8.438693 -3.5473082 -0.35098866 254.59091
-8.0295773 -3.4308434 -0.35001564 149.10938
-7.9743919 -3.4793258 -0.35082611 151.26088
1.603 -3.4189999 -0.303 67
8.4885006 -3.4873078 -0.35157695 255.00002
8.5311861 -3.4360566 -0.34980005 252.10001
-8.1319208 -3.3338594 -0.34767181 116.65625
-8.0803757 -3.383101 -0.35432503 133.825
0.87926602 -3.3140295 -0.35113671 128.43886
1.4862772 -3.3105233 -0.35079995 145.8
1.5433143 -3.3580475 -0.3505021 140.31064
2.6010001 -3.3900001 -0.30199999 66
8.5802116 -3.3779702 -0.33981818 210.57576
8.6116247 -3.3367498 -0.31499997 123.375
-8.2317104 -3.2446251 -0.33289582 132.45834
-8.1809645 -3.2887495 -0.34921435 105.78572
0.89438176 -3.2959578 -0.35016182 97.073532
0.93662953 -3.2447479 -0.35071573 87.028625
1.3748066 -3.2175066 -0.35066417 150.21642
1.435339 -3.2678986 -0.35053405 147.86879
2.6648753 -3.2354374 -0.30618748 65.125
2.701 -3.2455001 -0.301 64.5
8.6890001 -3.223 -0.359 50
8.7244997 -3.2111001 -0.36680001 50.5
-8.2801113 -3.1853335 -0.31322226 102.88889
-7.3494997 -3.1129999 -0.39950001 69
0.98654228 -3.1839738 -0.34949243 133.03015
1.028322 -3.1335893 -0.35059297 212.87907
1.2677865 -3.1289101 -0.35054085 155.17168
1.3275169 -3.1785772 -0.35031056 152.39752
2.5939999 -3.1677501 -0.33024999 61.5
2.6150002 -3.1837144 -0.31785718 62.857147
8.7720718 -3.1518655 -0.34856099 51.121948
-7.4307146 -3.0342858 -0.34928572 57.857147
1.0775135 -3.0739093 -0.35057569 234.75371
1.1405638 -3.0379939 -0.3503131 170.7867
1.2171527 -3.0873897 -0.35033891 151.92374
7.8727059 -3.0504122 -0.37458822 50.705883
7.947 -3.0103335 -0.37766668 50.333336
8.797801 -3.0946002 -0.37639999 52
8.8116055 -3.0689995 -0.34057891 51.973686
-7.7735 -2.9187498 -0.37625 52
-7.5272002 -2.9598 -0.33579999 60.200001
-7.4720001 -2.984 -0.35699999 57
1.9564828 -2.9368281 -0.36381608 63.091953
2.0159092 -2.9441366 -0.31513637 58.36364
4.0975556 -2.9437778 -0.33244443 60.555557
4.1292381 -2.9338098 -0.32966664 61.619049
7.9621248 -2.9705 -0.333 50
8.0613747 -2.9612498 -0.34712499 50.125
-6.5290003 -2.8239999 -0.38 51
-6.4933333 -2.8070002 -0.39300001 51
1.890156 -2.8299685 -0.38996875 83
1.9415497 -2.8510988 -0.34511119 73.549385
2 -2.881 -0.30199999 64
4.0862498 -2.8395 -0.34750003 63.5
4.125267 -2.8635337 -0.3414667 64.666672
4.3757496 -2.8287499 -0.32225001 61
4.4109998 -2.84375 -0.32100001 63.25
7.1877503 -2.819 -0.39349997 50.75
7.2010002 -2.8010001 -0.396 50
9.052001 -2.8309755 -0.35707313 51.170731
-7.7215452 -2.716182 -0.35772729 52.272728
-7.6860828 -2.7373333 -0.38091666 52.416668
-7.2222505 -2.7262499 -0.31950003 51
-7.1590009 -2.735111 -0.34544444 51.333332
-7.0929999 -2.73 -0.366 52
-6.5215006 -2.7480001 -0.35666668 54.166668
-6.4539499 -2.7400503 -0.37699997 51.850002
-6.3990002 -2.7060001 -0.38800001 51
1.8790331 -2.7436724 -0.37840986 93.70491
1.9284552 -2.7507179 -0.33002573 86.987183
7.2197866 -2.7751431 -0.36035714 50.357143
9.0828419 -2.7750001 -0.35200006 51.045456
9.1104069 -2.7284811 -0.33751851 51
-7.9086666 -2.6176667 -0.31500003 51
-7.8368669 -2.6323335 -0.31613335 51.333336
-7.7525454 -2.6667573 -0.336303 51.848488
-7.6937504 -2.6812501 -0.37400001 51.5
-7.2208571 -2.6797147 -0.30757141 51.14286
-7.154542 -2.6460836 -0.32062507 51.833336
-7.0585299 -2.6365297 -0.34888235 51.411766
-6.9980001 -2.6129999 -0.36500001 51
-6.6356006 -2.6424 -0.32600001 52.400002
-6.5570002 -2.6339002 -0.33829999 52.799999
-6.4481997 -2.6594 -0.35626668 54.066669
-6.354322 -2.6453927 -0.37885711 51.357143
1.8731072 -2.647645 -0.37298131 106.2757
1.9355237 -2.6447742 -0.31978679 95.91111
2.012167 -2.6123333 -0.30241665 75.75
8.3500004 -2.6570001 -0.366 50
-7.1256499 -2.5512497 -0.31054997 51.350002
-7.0547228 -2.5620835 -0.3393611 51.416668
-6.9734554 -2.5375454 -0.36354545 51.636364
-6.631 -2.5857501 -0.30624998 52
-6.5499444 -2.5622778 -0.31994447 51.944447
-6.4499998 -2.5476673 -0.33816668 52.888889
-6.340476 -2.5571907 -0.35804766 53.761906
-6.2605519 -2.5413685 -0.37831575 53.052631
1.874879 -2.5512612 -0.37511247 114.22088
1.9429007 -2.5500681 -0.33043021 91.143372
2.0229588 -2.5474792 -0.30748963 75.916672
6.5540004 -2.5550001 -0.38833332 50.333336
-7.4225001 -2.431 -0.31099999 50
-7.3562865 -2.442143 -0.31657144 50.000004
-7.2480001 -2.424 -0.31075001 50
-7.1315002 -2.4549999 -0.30900002 51
-7.0332003 -2.4482 -0.33300003 51.200001
-6.9587893 -2.4517894 -0.35915789 51.157894
-6.881 -2.4130001 -0.36899999 51
-6.4110003 -2.4625001 -0.33200002 52
-6.3509998 -2.4548001 -0.34074998 53.299999
-6.2423606 -2.4540403 -0.35992 53.239998
-6.1705523 -2.4385171 -0.38165519 51.206898
1.88255 -2.4546661 -0.38440752 122.89417
1.9420913 -2.4482694 -0.34611952 97.566032
2.0341823 -2.4461086 -0.31183639 79.581818
3.4625001 -2.4089999 -0.30149999 63.5
5.7580972 -2.4448385 -0.38396773 50.709675
5.8297195 -2.4181874 -0.37981254 61.53125
5.927 -2.4260001 -0.39399999 50
-7.0019999 -2.3959999 -0.33000001 50
-6.9405003 -2.3895001 -0.33899999 50
-6.86552 -2.3447201 -0.34844002 50.799999
-6.3162498 -2.3807502 -0.33625001 52.5
-6.2488756 -2.3482916 -0.34370837 53.125
-6.1381574 -2.3603945 -0.36915788 52.236843
-6.0812001 -2.3236003 -0.38200003 51.900002
1.8932704 -2.3805676 -0.3942703 130.32433
1.943464 -2.3487642 -0.3641693 117.88721
2.0459881 -2.3480823 -0.31865618 87.924904
2.1089001 -2.3195 -0.30315003 81.300003
3.3901999 -2.3157334 -0.32566673 60.733337
3.4361115 -2.3566666 -0.31038892 63.138889
5.8724546 -2.3549821 -0.36181816 55.854546
5.9089999 -2.3930001 -0.3775 50
-6.8152733 -2.2668183 -0.34354547 50.818184
-6.7729459 -2.2365997 -0.33341819 51.490906
-6.2237 -2.2669001 -0.34020004 52.200001
-6.1512227 -2.2479999 -0.35144442 52.444447
-6.0388451 -2.2515776 -0.37740001 51.977779
-5.9944 -2.2054 -0.38600001 52
1.9665589 -2.2552381 -0.37655386 131.43307
2.0452013 -2.2469587 -0.33586979 101.11634
2.1276221 -2.2410493 -0.30889508 86.63636
6.9779997 -2.2305 -0.354 50
9.4901552 -2.2664618 -0.35976917 50.92308
9.5283279 -2.2293038 -0.35228261 51
-7.1521115 -2.130111 -0.30900002 52.222221
-6.9089999 -2.109 -0.35299999 50.400002
-6.8547106 -2.1565266 -0.35150003 50.86842
-6.7763791 -2.1729658 -0.32313794 51.862068
-6.6916671 -2.1063333 -0.32733333 51.666668
-6.141613 -2.1513548 -0.34329033 52.258064
-6.0492916 -2.1433749 -0.35829169 52.125
-5.9653702 -2.1470003 -0.38156527 52.347828
1.9887296 -2.1812162 -0.39083797 137.18919
2.0467091 -2.1491346 -0.36451596 123.58692
2.1462839 -2.1473675 -0.32187051 95.50602
2.2184184 -2.1229815 -0.30545455 88.418182
9.5765753 -2.1797576 -0.34457579 51
9.6172104 -2.1438751 -0.35445833 51
-7.118 -2.0910001 -0.30500001 51
-6.9260373 -2.0444362 -0.3340545 50.399998
-6.8818507 -2.0682995 -0.36365002 51.350002
-6.7279997 -2.0558887 -0.30566666 51.555557
-6.6630001 -2.0634544 -0.31677273 51.272728
-6.5939999 -2.0320001 -0.322 50.5
-6.1169991 -2.0523999 -0.34015 51.700001
-6.0507336 -2.0449667 -0.35526666 52.100002
-5.9420152 -2.0480909 -0.38087872 53.636364
2.0747106 -2.0679615 -0.3830654 134.29231
2.144104 -2.0456576 -0.35380593 115.75248
2.24351 -2.045212 -0.31757385 93.29866
2.3192892 -2.0167336 -0.30497777 88.111115
6.2892499 -2.0185001 -0.39475 50
6.3285999 -2.007 -0.38480002 50
-9.5247393 -1.9202175 -0.34969562 51.04348
-6.9512777 -1.9740556 -0.31416669 50.444447
-6.1222086 -1.9490417 -0.34179169 51.5
-6.0437021 -1.946456 -0.36310527 52.105263
-5.9699006 -1.95842 -0.38752002 53.059998
2.1658311 -1.9652444 -0.38030049 131.27548
2.2442207 -1.9453508 -0.35104269 115.42448
2.3441634 -1.9454209 -0.31878936 94.605347
2.4322357 -1.9228985 -0.30631465 84.820229
2.5009999 -1.901 -0.301 79
5.8397856 -1.9387857 -0.31378573 50.000004
6.3461533 -1.9741538 -0.37892306 50
-8.8386669 -1.8103335 -0.33875 50.083336
-6.1239672 -1.8384666 -0.35190004 52.166668
-6.057445 -1.8541086 -0.37972286 52.903614
2.2644098 -1.8703072 -0.38099095 135.95744
2.3455956 -1.8451583 -0.35781053 120.07227
2.4461968 -1.847409 -0.32667097 92.817886
2.5432649 -1.8401089 -0.31238019 81.177086
2.6380002 -1.8190269 -0.3062973 74.648651
2.724364 -1.8063636 -0.30245453 73
5.1885009 -1.8101 -0.37830004 51.299999
5.2389398 -1.8390299 -0.34741789 53.671642
5.5769997 -1.8155 -0.39199996 50
5.62325 -1.8314999 -0.37391672 50
-13.008 -1.766 -0.30599999 52
-12.965334 -1.7156668 -0.32466668 51.333336
-8.8369999 -1.7819999 -0.396 51
-6.2152901 -1.7292581 -0.31512901 52.838707
-6.1569347 -1.7507325 -0.35954344 53.72464
-6.0933752 -1.7888749 -0.39175001 54
2.3719027 -1.7821087 -0.38559625 136.74095
2.4517648 -1.7540818 -0.37040895 124.84277
2.5449975 -1.7423859 -0.34892738 103.97849
2.648824 -1.7492687 -0.32842803 83.431908
2.7451823 -1.744187 -0.31316262 82.142853
2.8394399 -1.7114602 -0.30542004 84.259995
2.9522181 -1.7131636 -0.31330904 71.018181
3.0544999 -1.7267503 -0.32576311 59.236843
3.1171176 -1.7242941 -0.34852946 55.823528
5.1644754 -1.7533671 -0.34659174 51.250004
5.2033191 -1.7180911 -0.33454552 52.318184
5.3282499 -1.72 -0.39274999 50.25
5.4899998 -1.709 -0.39199999 50
5.5634227 -1.7511923 -0.37911537 50
5.6183333 -1.7441667 -0.35441667 50
-12.929301 -1.6755002 -0.33579999 52
-12.8955 -1.635 -0.38300002 52
-12.312 -1.655 -0.308 51
-8.048625 -1.6021249 -0.33975002 57.125
-6.3114619 -1.6118462 -0.31269231 54.153847
-6.2501302 -1.6499059 -0.34981138 54.446541
-6.1887641 -1.6889412 -0.38394117 54.588234
2.493 -1.6972001 -0.39840001 134
2.558476 -1.6834003 -0.3849515 125.55676
2.6515343 -1.6667088 -0.37149695 113.94171
2.7494333 -1.6580178 -0.35995775 103.04788
2.8459558 -1.6563989 -0.35618204 88.920967
2.9456909 -1.6620494 -0.36145848 74.76796
3.0426002 -1.672894 -0.37443531 64.352943
3.1170003 -1.6872501 -0.38558337 57.5
4.939857 -1.6221429 -0.3941429 51.000004
5.0209999 -1.668 -0.40000001 51
5.3439813 -1.6292546 -0.37374505 50
5.4720001 -1.6925 -0.37849998 50
5.527 -1.6900001 -0.35699999 50
-12.205 -1.5785 -0.34200001 50.5
-12.173001 -1.5415555 -0.34622222 51
-9.1569004 -1.5348002 -0.32100001 50
-8.0197039 -1.573741 -0.35092589 58.333332
-7.9762673 -1.5272437 -0.34999999 59.048779
-7.5120001 -1.525 -0.345 51
-6.4090009 -1.5097692 -0.31915388 54.076923
-6.3485065 -1.5500391 -0.35002598 54.220779
-6.2883887 -1.5896111 -0.38227782 54.666668
4.789 -1.5039999 -0.396 51
4.842834 -1.5426111 -0.39194441 51
4.9054999 -1.5955 -0.39399999 51
5.2948232 -1.5314116 -0.3722941 50.294117
5.3204746 -1.5487272 -0.34989899 50.171719
-9.2105007 -1.4985 -0.31300002 50
-7.934444 -1.4553167 -0.35060763 61.265823
-7.448 -1.483 -0.35699999 53
-7.3959999 -1.4630001 -0.35800001 53
-6.5157495 -1.4094377 -0.31962499 57.25
-6.4511867 -1.450523 -0.35079461 54.033112
-6.3901339 -1.4910002 -0.38153335 54.000004
4.6849999 -1.4126668 -0.38716668 51
4.7449031 -1.4609033 -0.38716125 51
5.2815881 -1.4571764 -0.36682352 50.117649
5.31531 -1.4685773 -0.32885912 50.112675
-7.9661908 -1.3755238 -0.34223813 59.714287
-7.3509998 -1.334 -0.38749999 53.25
-6.82585 -1.3419499 -0.36335 51.424999
-6.7674441 -1.3468889 -0.37011114 50.555557
-6.6286006 -1.3212 -0.37199998 50.400002
-6.5476294 -1.3595343 -0.35612938 53.974136
-6.4931431 -1.3931429 -0.38571426 54.000004
4.5757203 -1.3196 -0.38632005 51.16
4.6555204 -1.3649621 -0.36245564 54.037975
4.7018003 -1.3816001 -0.317 52
5.5263329 -1.321 -0.37833336 50
5.6514754 -1.3336002 -0.35334998 50.025002
5.729167 -1.3136666 -0.30633333 50
-12.544499 -1.2333751 -0.35581252 50.9375
-9.8584995 -1.212 -0.36199999 50
-6.7151675 -1.2143334 -0.37400001 54.166668
-6.6754999 -1.2391 -0.38180003 53.700001
4.4726276 -1.2221357 -0.37242368 51.474575
4.5465994 -1.2641557 -0.35714442 51.155556
4.6036 -1.2936001 -0.3294 52
5.6336946 -1.2824723 -0.37505567 50
-12.514556 -1.1816666 -0.34177777 51.222221
-12.490333 -1.1633333 -0.37177777 51
-11.827 -1.183 -0.30399999 50
-11.765573 -1.1537144 -0.35285717 50.14286
-9.8549995 -1.199 -0.37200001 50
-7.5122223 -1.1900001 -0.34288889 52.888889
-7.4557719 -1.1389112 -0.3485949 60.506332
-6.7513866 -1.1839774 -0.35668182 50.840912
4.3655925 -1.1316628 -0.37641859 51.244186
4.4411278 -1.1568911 -0.33576977 51.278786
4.8400002 -1.16 -0.35100001 50
4.914 -1.184 -0.30399999 50
-10.91 -1.05 -0.37200001 50
-8.5105 -1.0575 -0.3655 50
-8.4722443 -1.0488788 -0.36733332 50.18182
-7.4115 -1.0841999 -0.36290002 60.299999
-7.3795357 -1.0350002 -0.34675005 64.202385
4.1989999 -1.001 -0.39899999 52
4.2626004 -1.0340817 -0.37239081 51.30909
4.3340688 -1.0656091 -0.34874713 50.712643
4.4486156 -1.0902308 -0.32046154 51.153847
4.6885004 -1.0125 -0.30449998 50
4.7253337 -1.0338333 -0.31308332 50
-10.931999 -0.99699998 -0.34900001 50
-10.224165 -0.92572212 -0.36077777 50
-10.196334 -0.917 -0.36000001 50
-8.3950005 -1 -0.396 50
-7.4104095 -0.9622274 -0.35527271 57.18182
-7.388824 -0.98008829 -0.34041169 64.970589
4.099 -0.90100002 -0.398 52
4.1615376 -0.9371286 -0.37090909 51.583336
4.2354379 -0.96314025 -0.34061688 50.691586
4.322 -0.99549997 -0.32450002 50
-10.220334 -0.86855561 -0.31488886 50
-10.159286 -0.81985724 -0.32071429 50.000004
-9.4899998 -0.81699997 -0.31799999 50
-7.302 -0.85100001 -0.38049999 51.5
-7.2273469 -0.82752723 -0.34225452 50.799999
-7.1975002 -0.80250001 -0.38350001 50
4.0631852 -0.83614129 -0.36017069 51.819511
4.1266675 -0.8752293 -0.33295837 52.84375
-10.119 -0.76899999 -0.31200001 50
-7.3050003 -0.70749998 -0.33050001 50
-7.2496943 -0.74951643 -0.3505508 51.855934
-7.198 -0.78100002 -0.38116667 52.166668
3.9796016 -0.73232877 -0.37273291 53.40411
4.0233226 -0.76104331 -0.33518845 52.400967
-10.9305 -0.63049996 -0.34149998 50
-8.1114998 -0.67299998 -0.38499999 50
-7.4079084 -0.60909098 -0.38163638 50.545456
-7.3514438 -0.65655553 -0.37666667 50.333332
-7.2938576 -0.68757147 -0.38357145 51.57143
3.9707515 -0.6548425 -0.36659932 58.277153
4.0193281 -0.64351499 -0.31797025 53.813431
4.7713332 -0.64600003 -0.35775003 52.291668
4.8129396 -0.65375763 -0.3200303 51.606064
5.4559999 -0.63499999 -0.347 51
-10.876599 -0.57679999 -0.31979999 50.799999
-10.211 -0.58899999 -0.31900001 50
-10.165626 -0.55449998 -0.31650001 50.125
-7.4549999 -0.59500003 -0.3865 50
-6.3470001 -0.50599998 -0.39700001 53
-5.6125002 -0.51300001 -0.37766668 58.333336
-5.5510006 -0.51957148 -0.38771433 54.000004
-5.4564548 -0.51800001 -0.39463639 54.36364
3.9849756 -0.5665527 -0.3817398 57.487804
4.0301075 -0.54320836 -0.34071755 54.81041
4.7880001 -0.58200002 -0.303 52
4.8477216 -0.53916669 -0.31461111 51.277779
-7.2715001 -0.41500002 -0.39700001 51.5
-7.0193338 -0.48000002 -0.39633334 51.333336
-6.3584447 -0.41455555 -0.34544444 50.888889
-6.2681999 -0.43200001 -0.36320001 51.400002
-5.7054996 -0.40850002 -0.30149999 58
-5.6567955 -0.45517185 -0.33856255 59.234375
-5.5558152 -0.4316296 -0.35725921 52.148148
-5.4445519 -0.45303443 -0.37803447 51.517242
-5.3512821 -0.44776922 -0.38771793 54.282051
-5.2752666 -0.42166668 -0.39413333 56.866669
4.0579042 -0.45329833 -0.35250503 55.648991
4.1056809 -0.41177273 -0.32272729 53.86364
-7.8260002 -0.31349999 -0.391 51
-7.7849998 -0.30700001 -0.39399999 51
-7.2256012 -0.33086666 -0.36113334 52.400002
-7.1890001 -0.30199999 -0.36000001 52
-6.5272226 -0.34248978 -0.32579592 52.244896
-6.464386 -0.33877271 -0.35211363 52
-6.3235002 -0.39700001 -0.34999999 50
-6.2775002 -0.39399999 -0.35499999 51
-5.7049999 -0.398 -0.30399999 58
-5.671 -0.39500001 -0.30899999 53
-5.5196152 -0.38173079 -0.34999999 53.153847
-5.451313 -0.33771423 -0.35409996 52.485714
-5.3525457 -0.35795453 -0.37431818 51.318184
-5.2473164 -0.35851219 -0.38280484 53.731705
-5.1567364 -0.33360523 -0.39131579 57.315788
-5.0879998 -0.303 -0.398 61
4.0830669 -0.37312269 -0.38029248 56.037735
4.1286449 -0.34337142 -0.34138465 54.645485
-7.8310523 -0.2522105 -0.33710524 51
-7.748312 -0.25090626 -0.36006248 51
-7.6555181 -0.22870369 -0.37622222 51
-7.5820003 -0.21075 -0.39274999 51
-7.2287335 -0.27886668 -0.32020003 52.333336
-7.1713748 -0.27362502 -0.33412498 51.5
-6.5310001 -0.29899999 -0.30599999 53
-6.4838333 -0.29366666 -0.34633335 52
-5.4088335 -0.29299998 -0.35633335 52.5
-5.3502493 -0.25641671 -0.35720837 52.291668
-5.2583704 -0.24062966 -0.36855552 51.333332
-5.1479163 -0.25894445 -0.38119444 52.583332
-5.0564094 -0.24357148 -0.39122453 58.571426
-4.9910002 -0.21166667 -0.39866671 63.333336
4.1697655 -0.26196298 -0.3599152 55.095943
4.2165766 -0.22533914 -0.331195 54.40678
-7.7327695 -0.18369232 -0.31276923 51
-7.6448064 -0.16429029 -0.33183867 51
-7.5506525 -0.14860871 -0.35728261 51
-7.4544611 -0.12657695 -0.38007689 51
-7.3860002 -0.105 -0.39300001 51
-5.2358627 -0.16076711 -0.35613701 52.369862
-5.161685 -0.13299996 -0.3627407 51.51852
-5.0448852 -0.16491427 -0.38248575 53.028572
-4.9640803 -0.14133997 -0.39254001 60.639999
4.1961427 -0.19185714 -0.39457145 55.000004
4.2520247 -0.15416618 -0.35242 56.051361
4.3252649 -0.11188236 -0.32567653 52.705883
-8.2508335 -0.034666669 -0.31666666 51
-7.5339994 -0.080882348 -0.31347063 51
-7.4463539 -0.062838711 -0.33235481 51
-7.3552713 -0.047690902 -0.35809097 51
-7.263443 -0.022777779 -0.38018519 51
-5.2072501 -0.090999998 -0.333 53
-5.1433682 -0.060069956 -0.35022002 52.099998
-5.0644617 -0.03578379 -0.36417574 52.027027
-4.9389329 -0.058244448 -0.38815564 56.755558
-4.8813462 -0.028538467 -0.39515388 65.153847
4.2801161 -0.085534886 -0.38297671 63.651161
4.3495331 -0.05151879 -0.35335723 53.736843
4.4242086 -0.023447759 -0.31708947 52.552238
-7.33675 0.021437498 -0.31643745 51
-7.2489276 0.045527276 -0.33847263 51
-7.1565833 0.059041679 -0.37093753 51
-7.0694447 0.084666662 -0.39044443 51
-6.323667 0.076333337 -0.38766667 50
-5.76125 0.075000003 -0.36125001 50.75
-5.110095 0.028809529 -0.33042857 52.428574
-5.0501227 0.048631556 -0.3528572 55.466167
-4.9608445 0.06246667 -0.37931111 51.422222
-4.8531666 0.050999995 -0.39225933 61.148148
4.3820004 0.017369568 -0.38265219 54.195652
4.4469447 0.04915911 -0.35424548 53.777271
4.5269256 0.071597002 -0.3173582 52.925373
-7.2210002 0.109 -0.30400002 51
-7.1394005 0.13329999 -0.32397506 51
-7.0552588 0.14801724 -0.35531038 51
-6.9570289 0.16822855 -0.38262856 51
-6.8970003 0.192 -0.39399999 51
-6.277 0.108 -0.391 50
-5.0291777 0.13806246 -0.35466659 52.572918
-4.9680586 0.16794203 -0.36275354 51.56522
-4.8383503 0.1429 -0.38903323 55.900002
-4.79175 0.17400001 -0.39691669 67.166672
4.4810224 0.11475557 -0.38173342 54.066669
4.549737 0.1459838 -0.35735676 53.783787
4.6382742 0.16612241 -0.32071429 53.214283
11.527667 0.18099999 -0.315 100.66667
-7.0334287 0.22033334 -0.31842858 50.952381
-6.9542804 0.22416002 -0.34524003 50.639999
-6.856883 0.2374706 -0.38058826 50.882355
-6.7835827 0.28325 -0.38716668 51
-6.6263433 0.26574281 -0.3317143 52.57143
-6.5948334 0.27950001 -0.32499999 63.416668
-6.0262008 0.23360001 -0.38600001 50
-5.9640002 0.2755 -0.38928574 50.000004
-5.6798339 0.22549999 -0.37383336 50
-4.940691 0.23186412 -0.3624815 52.123459
-4.8666668 0.26381478 -0.3723827 51.839508
-4.7722445 0.25092682 -0.39458534 58.439022
-3.3619752 0.26377991 -0.3505595 205.54723
4.5852361 0.20764709 -0.3889412 53.235294
4.6527219 0.23568852 -0.36751628 53.442619
4.7277822 0.25284615 -0.34097436 54.512821
11.573999 0.22941175 -0.33541176 154.23529
11.616367 0.27657896 -0.34689477 194.78947
-6.7375712 0.32171428 -0.38864288 51.000004
-6.6216087 0.35098442 -0.34762505 62.34375
-6.586092 0.35660619 -0.34513631 65.818184
-5.9249339 0.32093331 -0.39266667 50.000004
-5.8734999 0.333 -0.40000001 50
-5.7280002 0.37200001 -0.39199999 51
-5.6563334 0.31766665 -0.39166665 50
-4.9400001 0.31033334 -0.34900004 51
-4.8529353 0.3116774 -0.37116125 52.548386
-4.757 0.30883333 -0.39516664 58.666668
-3.3173661 0.31800002 -0.35064715 228.32355
-3.2762635 0.3682512 -0.35035169 225.64568
4.7235713 0.30528569 -0.39371431 54.285717
11.665475 0.33544123 -0.35082355 214.91176
11.708462 0.3869231 -0.35384619 216.00002
-7.543231 0.48284617 -0.31807691 51
-6.7427506 0.42869997 -0.32804999 51
-6.6513572 0.42314288 -0.34485716 51.214287
-6.5474639 0.41917861 -0.37814286 51.000004
-3.2252369 0.43029794 -0.35051808 232.62955
-3.1845968 0.4800117 -0.35045305 231.54285
11.759023 0.44821942 -0.35007319 215.39023
-3.2052906 0.59587103 -0.35899994 151.67741
-3.1607091 0.54099488 -0.34985408 181.23552
11.841867 0.54754376 -0.3512826 213.39131
-3.3166678 0.68930161 -0.35026887 153.48387
-3.2557364 0.63846511 -0.35030335 155.03304
11.894715 0.611 -0.347 213.00002
11.933558 0.65779412 -0.35108823 212.52942
-3.4259121 0.77959669 -0.35058215 147.31343
-3.3664751 0.73084629 -0.35034657 150.4386
11.984186 0.71899992 -0.35512501 212.4375
12.02165 0.76413041 -0.34708694 210
-3.5344398 0.86764067 -0.35040507 139.16924
-3.47281 0.81787914 -0.35027823 144.5564
12.07063 0.82440758 -0.34833336 208.55556
12.118699 0.88279992 -0.35055003 207.75
-3.5867817 0.90901595 -0.35026559 122.85938
5.0943689 0.99350011 -0.34966668 127.73334
5.1372433 0.95835286 -0.35052103 148.98804
10.498 0.99000001 -0.38999999 52
10.5496 0.97559994 -0.36805007 54.400002
10.606501 0.93949997 -0.38600001 51
12.166692 0.94076931 -0.35000002 205.53847
12.206749 0.98899996 -0.34891665 201.5
4.9837046 1.0859489 -0.34994873 83.53846
5.0434937 1.0360878 -0.35060006 100.47442
10.298 1.089 -0.39300001 68
10.358257 1.0723549 -0.3585161 64.935478
10.445243 1.0313029 -0.34869704 58.606064
10.524167 1.0146667 -0.31750003 59.833336
10.611 1.0075001 -0.30849999 60
11.437 1.021 -0.39700001 51
12.260451 1.0545251 -0.34967497 197.40001
4.8729091 1.1780691 -0.35114694 82.874123
4.9337249 1.1276219 -0.35063958 83.36628
10.181125 1.1851251 -0.38412499 68.5
10.25119 1.1525958 -0.35493615 68.021271
10.321812 1.1208125 -0.32656252 67.125
12.32635 1.1391002 -0.33470002 169.05
4.7641735 1.2699682 -0.3507306 100.27461
4.8222737 1.2205001 -0.3501876 83.453125
10.076556 1.2792778 -0.37222221 68.888893
10.14524 1.2432827 -0.34708697 68.108696
10.216715 1.2158571 -0.31057143 68.714287
4.7368741 1.345715 -0.35078663 94.831116
9.9674158 1.3733792 -0.36789653 71.241379
10.038325 1.3354417 -0.34155813 66.720932
10.1075 1.3004999 -0.31349999 65.5
-5.8039999 1.495 -0.34 57
-5.7679996 1.4849 -0.3761 81.700005
4.7902079 1.4164376 -0.34991667 74.1875
4.8306956 1.4648404 -0.350144 108.77601
9.8645763 1.4663001 -0.36187503 72.200005
9.9344568 1.4293429 -0.33345711 65.171432
-5.9190001 1.5811905 -0.33390477 65.238098
-5.8514624 1.5456281 -0.36208975 77.846153
-5.7894292 1.5101429 -0.38800004 87.000008
4.879312 1.5229219 -0.35044155 157.75325
4.9217315 1.573858 -0.34957609 159.1087
9.6940002 1.5955 -0.38599998 71.5
9.7591057 1.561271 -0.36068749 67.625
9.826808 1.5235385 -0.33680773 63.384617
9.9386663 1.572 -0.30700001 54
10.004 1.582 -0.301 57
-6.0313148 1.6753685 -0.33449993 70.421051
-5.9592247 1.6360986 -0.36211267 78.676056
-5.8920002 1.605 -0.396 84
4.9559789 1.6156223 -0.35071111 136.53334
9.5900002 1.687 -0.38850001 72.25
9.6523066 1.6562879 -0.3532204 64.711868
9.7241879 1.615625 -0.33049998 60.125
-6.6162081 1.7463129 -0.32260418 50.645836
-6.5976667 1.7086668 -0.33166668 50.666668
-6.2189999 1.795 -0.301 53
-6.1404638 1.7661378 -0.33839643 73.706894
-6.0671883 1.727229 -0.36541659 80.083336
9.5805721 1.7081429 -0.37457147 71.14286
9.6092863 1.7114285 -0.33314288 57.000004
10.321 1.779 -0.301 50
-7.2859998 1.896 -0.31799999 50
-6.7313995 1.8681999 -0.32180002 50
-6.6419172 1.8197502 -0.31516665 50.083336
-6.3162217 1.8893334 -0.3222222 73.666664
-6.2469177 1.8542498 -0.34551668 75.083336
-6.1737299 1.8209232 -0.37603846 79.653847
10.306715 1.8300002 -0.31442857 50.857143
-7.3253345 1.9422777 -0.3142778 50.166668
-7.2915001 1.9075 -0.31599998 50
-6.9099998 1.957 -0.308 50
-6.8500004 1.931 -0.32100004 50
-6.4319582 1.9769167 -0.32925001 75.666672
-6.3527689 1.943411 -0.35773215 74.928574
-6.286375 1.9125 -0.38499999 82.125
-7.362 2.0105002 -0.30849999 50
-7.066 2.0929999 -0.30599999 51
-6.6167998 2.0896001 -0.31780002 63.799999
-6.5391083 2.0621893 -0.34100002 68.351357
-6.4605279 2.0293336 -0.36591667 77.083336
-6.3930001 2.003 -0.39300001 74
-6.6156254 2.1451249 -0.37687501 64.25
-6.5715003 2.1187856 -0.3802143 67.928574
-7.7624998 2.2934999 -0.30900002 51
-8.8334999 2.7770002 -0.32062501 79
-8.736599 2.7765996 -0.36116004 96.839996
-8.6963339 2.7969999 -0.37766665 105.66667
8.3790369 2.7827039 -0.36666664 90.666664
8.4113579 2.7752144 -0.32657143 85.500008
-8.8499002 2.8206 -0.31529999 80.900002
-8.7372513 2.8200624 -0.32256249 95.1875
-8.6629105 2.8563468 -0.35496157 128.64102
8.2855883 2.8790588 -0.38258827 84.058823
8.3409252 2.8425181 -0.34567904 89.234566
-8.7113333 2.9886665 -0.31299999 100.16667
-8.6339731 2.9322104 -0.34307894 132.97368
-8.5789652 2.95838 -0.38065517 164.03448
8.2521191 2.9491792 -0.36579114 74.343285
8.3189993 2.9082 -0.32380003 57.799999
-8.7246399 3.0522003 -0.32080001 93.959999
-8.6542759 3.0529313 -0.36462075 99.965515
-8.5907497 3.0124998 -0.37699997 113.5
8.1765385 3.0538845 -0.38584614 74.846153
8.2352085 3.0435004 -0.35887504 59.833336
8.3052502 3.0292501 -0.33875 51
-8.8655729 3.1927142 -0.33528575 172.00002
-8.7280798 3.1318402 -0.35676005 111.75999
-8.691 3.0999999 -0.34999999 105
8.1497393 3.141609 -0.38673916 62.695652
8.2452869 3.1250002 -0.3617143 53.857143
8.3514996 3.1534998 -0.35100001 50.75
8.4209995 3.1500001 -0.347 50
8.9914999 3.1775 -0.34450001 51.25
9.0602493 3.1389167 -0.31874999 50.5
-8.8408451 3.2525456 -0.34787008 249.37662
8.9840002 3.2135 -0.35250002 51
9.0596676 3.2639999 -0.35233331 50.333336
-8.8009996 3.3020003 -0.34714288 254.57144
-8.7575207 3.354152 -0.35090694 254.61627
9.1375828 3.3415833 -0.35699999 50.583336
9.214201 3.3568001 -0.34059998 51
9.7600002 3.3599 -0.31479999 50
-8.7098236 3.4117062 -0.35129413 255
-8.6696987 3.4597113 -0.35086957 254.8261
-8.0175543 3.4769998 -0.35099998 76.777779
-7.9436598 3.4795897 -0.35261363 161.02274
8.8940001 3.4159999 -0.39899999 54
8.9461441 3.4452858 -0.38542858 51.14286
9.0530005 3.464 -0.37799999 50
9.1717501 3.4567497 -0.36641666 50.25
9.2306013 3.4473999 -0.34999999 50.299999
9.3120003 3.483 -0.32100001 50
9.7578335 3.4519167 -0.3515 50.166668
9.8458748 3.45175 -0.32087499 50.625
9.915 3.4759998 -0.30849999 51
-8.6187401 3.5211623 -0.35009301 254.97675
-8.5750809 3.5729415 -0.35121566 255.00002
-7.9168482 3.5503364 -0.34889537 117.86047
-7.9000001 3.5929999 -0.39199999 101
9.1940002 3.5179999 -0.37200001 50
9.2515335 3.5472674 -0.36566666 50.133335
9.3233337 3.5230002 -0.33366665 50
9.7969999 3.5109999 -0.36000001 50
9.854001 3.5172002 -0.345 51
9.9468002 3.5505002 -0.3285 50.900002
10.0344 3.5702 -0.31119999 50.600002
-8.5258932 3.6312728 -0.34896368 254.99998
-8.4953327 3.6675832 -0.35541666 254.91667
-7.8521833 3.6484704 -0.35018021 107.45947
9.08675 3.665 -0.39725 55.5
9.1462002 3.6499333 -0.38806668 52.866669
9.2361259 3.6443748 -0.37862501 51.625
9.3030005 3.6140001 -0.375 51
9.8879995 3.6849999 -0.36500001 50
9.9495564 3.6521106 -0.36011112 50.555557
10.053364 3.6507275 -0.32709092 50.18182
10.144555 3.6687779 -0.31200001 50
-7.803556 3.7035556 -0.35444444 112
-7.760304 3.7550318 -0.35044551 112.9604
9.0742311 3.7640769 -0.38961542 55.46154
9.1491003 3.7335999 -0.3795 52.400002
9.2084999 3.7845001 -0.37549999 51
9.967 3.7135 -0.3545 50
10.048588 3.7272353 -0.33205879 50.470589
10.134666 3.7504442 -0.31499997 51.111111
-7.7105579 3.8150742 -0.3487778 112.88889
-7.6727128 3.8621511 -0.35019183 110.19178
9.0439997 3.8039999 -0.40000001 58
9.1582508 3.8722501 -0.33425 52
9.2349997 3.898 -0.32300001 52
9.9589167 3.8803334 -0.36175001 53.75
10.047001 3.8526957 -0.35973915 52.086956
10.115625 3.8199997 -0.33000001 52.375
-7.6215372 3.9274473 -0.35063076 105.69231
-7.5530677 3.9769995 -0.35303381 142.67796
-1.7268357 3.9839606 -0.35376564 70.039063
-1.6468199 3.9608464 -0.34885567 77.618591
-1.55926 3.9699876 -0.34652361 82.519684
-1.4498336 3.9830351 -0.34610534 102.05264
-1.397 3.9990001 -0.39649999 76
9.1849995 3.9245 -0.36199999 52.5
9.2502499 3.957875 -0.35287496 52.875
9.5459995 3.973 -0.38600001 51
9.639143 3.9812858 -0.37628573 53.000004
9.7374296 3.9665713 -0.36600003 53.428574
9.860445 3.9358335 -0.37794441 53.333332
9.9307146 3.9088576 -0.38628572 53.285717
-7.5081015 4.0466032 -0.35081032 100.46552
-7.4887228 4.0210557 -0.35000002 180.11111
-1.9082961 4.0939631 -0.36396295 67.222221
-1.8497189 4.0575585 -0.35016504 68.398056
-1.7768461 4.0128655 -0.34836537 69.807693
-1.54208 4.0171728 -0.3773334 83.770111
-1.43706 4.0371661 -0.35197344 79.006668
-1.3586471 4.069663 -0.35098422 81.955559
-1.2719183 4.0921326 -0.35311112 167.61989
9.2950001 4.0358572 -0.36485714 68.571434
9.3293343 4.048667 -0.38166666 60.333336
9.5852003 4.02 -0.38480002 53.600002
9.6437054 4.0462937 -0.35829413 55.294117
9.7140007 4.0426669 -0.31833333 53.333336
10.660385 4.0837698 -0.32176924 55.076923
10.739429 4.0544291 -0.31671429 54.428574
-2.0298383 4.1778674 -0.35540947 66.066666
-1.9561913 4.1285372 -0.34785181 66.543213
-1.5208751 4.1335001 -0.39074999 68.25
-1.4859999 4.1035004 -0.38300002 51.5
-1.327654 4.1085782 -0.35701281 69.025642
-1.2271774 4.1154785 -0.34936738 143.30612
-1.1822296 4.1624799 -0.34738514 75.664597
9.3870001 4.1160002 -0.384 57
9.453001 4.1530004 -0.39300001 59.000004
9.5 4.1939998 -0.382 62
9.6490002 4.1079998 -0.39050001 52.5
9.7410002 4.1044998 -0.35299999 52
9.8260002 4.1040001 -0.32100001 52
10.453034 4.1762753 -0.33486205 58
10.549321 4.1385603 -0.33719996 55.879997
10.622875 4.1147499 -0.34487501 55.125
-2.208375 4.2931252 -0.38787499 64.125
-2.1479619 4.2615652 -0.35237184 66.775642
-2.079479 4.2159586 -0.34619173 67.465752
-1.1430902 4.2385964 -0.35194418 77.25322
-1.0735587 4.2677069 -0.31920585 55.544117
9.4549999 4.2275 -0.3935 62.625
10.289333 4.2820001 -0.39333338 59
10.359927 4.2420006 -0.3516829 59.999996
10.414667 4.2093334 -0.35283336 57.333336
-7.9225574 4.3571658 -0.35037038 254.94444
-7.893589 4.3927059 -0.35158825 255
-2.3206112 4.3860927 -0.3565926 75.870369
-2.2518673 4.3362169 -0.34963641 64.04895
-2.1945 4.3024001 -0.32260001 135.7
-1.0465034 4.3449917 -0.34538516 117.11852
-0.97952944 4.3734708 -0.32473531 84.088234
10.259443 4.3703699 -0.33481482 159.40741
10.325223 4.3223333 -0.31622225 111.44444
-7.8461103 4.4510803 -0.34993878 254.62244
-2.4298935 4.4695611 -0.35798484 62
-2.3675785 4.4227462 -0.34598792 62.867466
-1.0075883 4.4100003 -0.3371765 74.529411
-0.9550454 4.4546199 -0.34166673 96.954552
-0.88457143 4.4748573 -0.30650002 51.07143
10.153522 4.4609423 -0.34630767 174.17308
10.215444 4.4097776 -0.33055559 204.33333
-7.8028893 4.5046673 -0.34800005 252.66667
-7.76332 4.5534101 -0.35067049 251.20456
-2.5443757 4.5618119 -0.34927359 64.666672
-2.4841955 4.5284572 -0.34421742 64.847824
-0.91596156 4.5214815 -0.34451926 117.42308
-0.87022734 4.5609331 -0.34601519 131.56061
9.9957514 4.5939999 -0.34974998 226.125
10.049242 4.5499659 -0.35091379 202.13792
10.102429 4.5052862 -0.34742859 184.42857
-7.7127719 4.6152859 -0.3511143 249.74286
-7.6698699 4.6674647 -0.35091305 251.14493
-2.7161427 4.6854577 -0.35822859 62
-2.6492367 4.6381602 -0.35066101 62.923729
-2.5966668 4.604167 -0.32583332 63.166668
-0.82823473 4.634551 -0.35080606 135.0204
-0.79141974 4.68326 -0.36532 75.879997
9.8826427 4.6858578 -0.35278571 174.50002
9.9425058 4.637476 -0.35057622 199.38983
-7.620039 4.7285681 -0.34890202 253.98041
