# .PCD v0.7 - Point Cloud Data file format
VERSION 0.7
FIELDS x y z intensity
SIZE 4 4 4 4
TYPE F F F F
COUNT 1 1 1 1
WIDTH 1199
HEIGHT 1
VIEWPOINT 0 0 0 1 0 0 0
POINTS 1199
DATA ascii
-4.9482727 7.2485456 -1.3570002 74.36364
-4.8490834 7.2525001 -1.3574169 72.833336
-4.7511539 7.2503076 -1.3580769 73.384621
-4.6518469 7.2472315 -1.3585385 73.076927
-4.5454001 7.2449336 -1.3587999 74.066673
-4.4442 7.251267 -1.3590666 75.200005
-4.3427696 7.2483859 -1.3590001 74.769234
-4.2469997 7.2434998 -1.3586429 73.64286
-4.1518669 7.2537999 -1.3587334 74.066673
-4.0501881 7.2486253 -1.3584999 75.6875
-3.9528468 7.2463078 -1.3589232 75.153847
-3.8507147 7.2527137 -1.3586429 74.14286
-3.7514002 7.2480669 -1.3584 75.000008
-3.6466317 7.2503686 -1.358842 75.894737
-3.5472004 7.2504663 -1.359 77.400002
-3.4519374 7.2522497 -1.3590623 76.3125
-3.3488822 7.2474122 -1.3592942 75.294121
-3.2485294 7.2457638 -1.3598824 74.352943
-3.1494706 7.2472348 -1.36 73.235298
-3.0763333 7.246666 -1.3599999 69.555557
-1.6118335 7.2491665 -1.3520001 71.166672
-1.5320001 7.263 -1.3517499 72
-1.4662144 7.2442861 -1.3520714 75.357147
-0.34570003 7.2492499 -1.3541 71.700005
-0.24972729 7.247818 -1.3543181 71.909096
-0.14795654 7.250217 -1.3547823 71.565216
-0.048875004 7.2523737 -1.3551248 72.916672
0.044299997 7.244267 -1.3552997 71.433334
0.1537143 7.2471905 -1.3550473 69.190475
0.24954545 7.2493629 -1.3544545 67.590912
0.34938094 7.2504287 -1.3537145 68.523811
0.44833338 7.2519526 -1.353143 69
0.54900002 7.2486081 -1.353609 68.782608
0.65029997 7.2484508 -1.3535001 68
0.75194997 7.2474494 -1.3539501 67.900002
0.85031825 7.250546 -1.3543637 71.227272
0.94904536 7.2475457 -1.3544999 72.909096
1.0504286 7.2505722 -1.3547618 69.666672
1.1518499 7.2469506 -1.3554996 69.400002
1.2529 7.2468009 -1.3563499 71.450005
1.3497727 7.250773 -1.358182 70.227272
1.45315 7.2480502 -1.3585498 67.800003
1.55295 7.2484994 -1.3585498 68.349998
1.6487499 7.2497001 -1.3581499 68.650002
1.7503999 7.2483993 -1.3574002 68.5
1.8531579 7.248631 -1.3563156 69.263161
1.9480526 7.2524214 -1.3559996 70.052635
2.0491054 7.2481065 -1.3550525 70.789474
2.1476316 7.2492108 -1.3549998 70.736839
2.2473686 7.2452102 -1.354684 70.157898
2.348722 7.2527781 -1.3542777 70.888893
2.4493685 7.2469482 -1.3543158 70.421051
2.5488822 7.2492943 -1.3540589 70.823532
2.6505997 7.2518497 -1.354 70.849998
2.7484708 7.2465296 -1.3538237 70.882355
2.8478889 7.2487216 -1.3531113 69.111115
2.9481177 7.2490587 -1.3526471 68.470589
3.0496471 7.2472944 -1.3527648 69.588234
3.1508 7.2504673 -1.3529334 69.600006
3.2488828 7.2498231 -1.3529413 69.294121
3.3512223 7.2493887 -1.3531113 68.444443
3.4525335 7.2508001 -1.3533334 68
3.5494001 7.2467999 -1.3532668 68.53334
3.6466877 7.2517495 -1.353 69.1875
3.7444 7.2452683 -1.3528 68.333336
3.8462937 7.249824 -1.3522942 66.411766
3.9450002 7.2481337 -1.3516667 65.866669
4.0438461 7.2443852 -1.3519232 66.384621
4.1390719 7.252214 -1.352 66.64286
4.2466426 7.2476435 -1.3529286 65.785721
4.3493333 7.2501659 -1.3535001 65.666672
4.4474378 7.2498121 -1.3539375 66.125
4.5446 7.2478013 -1.3533335 67.26667
4.6443572 7.2464294 -1.3522859 68
4.753933 7.2537332 -1.3518 69.066673
4.8536005 7.2576003 -1.3517002 68.099998
4.9457269 7.2438183 -1.3513637 67.545456
5.0419168 7.2463336 -1.3516668 66.583336
5.1460772 7.2510767 -1.3517693 66.076927
5.2494445 7.2514443 -1.3522223 66.333336
5.3482728 7.2512732 -1.3522729 66.818184
5.4427505 7.2394161 -1.3520836 67.083336
5.5456667 7.2492499 -1.3525002 67.166672
5.6499095 7.2564545 -1.3529091 66.818184
5.7420001 7.2436996 -1.3534 66.300003
5.8480005 7.2510004 -1.3537776 64.333336
5.9526367 7.2493634 -1.3537273 63.727276
6.0493636 7.2463646 -1.3540001 65.272728
6.1505456 7.2507277 -1.3539091 64.909096
6.2444444 7.2466669 -1.3543335 64.444443
6.3460002 7.2515464 -1.3549999 66.454544
6.447875 7.2566252 -1.3545001 66.875
6.5484452 7.244556 -1.355 66.222221
6.6492496 7.2599998 -1.3548748 67.375
6.7572222 7.238667 -1.3554444 66.777779
6.8515716 7.2575722 -1.3557143 65.714287
6.9533339 7.2309995 -1.3551111 66.444443
7.0501108 7.2540002 -1.3540001 67.777779
7.143167 7.2648335 -1.3535001 68.666672
7.2429996 7.2411251 -1.3534999 68.75
7.3465714 7.2528577 -1.3545716 68.14286
7.4517498 7.2467499 -1.3553748 68.125
7.5459995 7.2648749 -1.35575 69.375
7.6526246 7.2388754 -1.3557501 68.375
7.7522502 7.259625 -1.3562499 69.625
7.8531432 7.2438574 -1.3557143 70.857147
7.9507499 7.2416248 -1.3548748 70
8.0513744 7.2597504 -1.355 69
8.1608 7.2330003 -1.355 70.599998
8.2503757 7.2442498 -1.35475 70.5
8.3458576 7.2631431 -1.3547143 70.857147
8.4408007 7.2603998 -1.354 70.800003
8.559001 7.2431436 -1.3534286 70.285721
8.653286 7.2488575 -1.3532857 70.285721
8.7447996 7.2658 -1.3528001 69.599998
8.8589993 7.2474999 -1.3527501 68.75
8.9445724 7.2474289 -1.3527143 69
9.047287 7.2557149 -1.3512858 69.14286
9.1402502 7.2597499 -1.3512499 65.75
9.2580004 7.2501998 -1.3520001 64.599998
9.3395996 7.2424006 -1.3518002 63.799999
9.4381666 7.2588339 -1.3521667 63
9.5483341 7.2520003 -1.3523334 63
9.6428337 7.2380004 -1.353 62.666668
9.7302494 7.2557497 -1.35325 62.25
-6.0045004 7.3045001 -1.32175 190.5
-5.9564686 7.3510861 -1.3296596 185.02127
-5.8490829 7.3480835 -1.3535001 102.41667
-5.7487998 7.3541002 -1.354 95
-5.6499996 7.3474169 -1.3547499 91.25
-5.547091 7.3424554 -1.3557273 90.090912
-5.4548335 7.3547497 -1.3565834 86.75
-5.3511996 7.3498001 -1.3568001 81.099998
-5.2508998 7.3434 -1.3561 78.099998
-5.1533642 7.3590908 -1.3565454 77.272728
-5.0567274 7.3460002 -1.3567274 75.727272
-4.9501433 7.3451433 -1.3569286 73.428574
-4.8443642 7.3457274 -1.3574547 74.818184
-4.7564616 7.352078 -1.3580769 74.230774
-4.6522007 7.3492007 -1.3588001 74.53334
-4.547462 7.3505387 -1.3590001 74.692314
-4.4464169 7.3509994 -1.3590001 75.25
-4.3479996 7.3496437 -1.3594288 73.214287
-4.25 7.3472309 -1.3586924 71.769234
-4.1534619 7.3530006 -1.358 73.769234
-4.0467501 7.3465629 -1.357875 74.5625
-3.9433336 7.3452005 -1.3585999 74.866669
-3.849067 7.350667 -1.3589333 73.333336
-3.7481999 7.3487334 -1.359 73.800003
-3.6536152 7.3540769 -1.3589232 74.846153
-3.5526001 7.3461337 -1.3587333 76.600006
-3.4478002 7.3445344 -1.359 76.600006
-3.3484001 7.3477335 -1.3590666 76.666672
-3.2521112 7.3483329 -1.3595554 78.111115
-3.1501253 7.3498116 -1.3600626 75.1875
-3.089 7.329 -1.36 62
-1.6323333 7.3356667 -1.3533334 68.5
-1.5184001 7.3632007 -1.3528001 68.800003
-1.4773334 7.3393335 -1.3525556 70.666664
-0.35045004 7.3513002 -1.354 71.800003
-0.25331819 7.3500009 -1.354091 70.772728
-0.1532857 7.3510475 -1.3542857 70.476189
-0.050450005 7.3509507 -1.3545499 71.800003
0.039793104 7.3464136 -1.3546895 71.551727
0.14485712 7.3484759 -1.3553331 69.285713
0.2470476 7.3509049 -1.3548568 67.619049
0.35104999 7.349051 -1.35445 68
0.45126319 7.3496847 -1.3536317 67.789474
0.54884207 7.3495798 -1.3536843 69.473686
0.64952385 7.3453341 -1.3539048 68.904762
0.74923807 7.3495235 -1.3541905 70.476189
0.85115004 7.3523498 -1.3545998 72.650002
0.94960004 7.3477502 -1.35445 73.050003
1.0509501 7.3519502 -1.3550497 70.150002
1.1515238 7.3476195 -1.3559999 68.952385
1.2506843 7.3482633 -1.3572633 68.105263
1.3523684 7.3532095 -1.3579999 71.842102
1.4525238 7.349144 -1.359238 70.857147
1.5501179 7.3499417 -1.3589411 69.529411
1.6461905 7.3501902 -1.358476 69.14286
1.7487893 7.3487363 -1.3582103 68.684212
1.8498887 7.3503332 -1.3573891 68.888893
1.9505001 7.3457227 -1.3562219 69.333336
2.0480556 7.3502784 -1.3554444 69.611115
2.1484737 7.3467898 -1.355105 70.684212
2.2523685 7.3502111 -1.3550524 70.526314
2.3485558 7.3521676 -1.3549441 70.5
2.45 7.3528333 -1.3549998 70.444443
2.5509999 7.3471174 -1.3548234 70.294121
2.6479998 7.3534374 -1.3544374 69.9375
2.7507777 7.3491669 -1.3541666 70.722221
2.8512356 7.3497052 -1.3536471 69.588234
2.9503126 7.3483124 -1.3531876 68.5
3.0464706 7.3503528 -1.3527648 68.411766
3.1479373 7.3434377 -1.3529375 69.4375
3.2470589 7.3504701 -1.3529999 68.470589
3.3498569 7.3547153 -1.3535 67.928574
3.4519997 7.3506465 -1.3535295 68.588234
3.5532668 7.347867 -1.3536668 68.733337
3.6513751 7.3513131 -1.3532501 69.1875
3.7491429 7.3456435 -1.3525714 68.14286
3.8493128 7.3483748 -1.3519999 67.0625
3.950917 7.3490829 -1.3517501 65.333336
4.0475001 7.3467865 -1.3527143 66.14286
4.145833 7.3529167 -1.3531666 66.75
4.2470717 7.343215 -1.3532144 66.214287
4.3479285 7.3492146 -1.3532145 65.571434
4.4510002 7.3508573 -1.3529286 67.285721
4.5549231 7.3507695 -1.3524617 68.384621
4.6542311 7.3496938 -1.352154 68.230774
4.7525458 7.3564553 -1.3523637 67.909096
4.8434 7.3418002 -1.3518002 67.900002
4.9442139 7.3487868 -1.3520715 67.285721
5.0477276 7.351727 -1.352091 67.272728
5.1475458 7.3469095 -1.3519093 66.545456
5.2555389 7.344923 -1.3521538 66.307693
5.348455 7.3513637 -1.352182 66.090912
5.4477272 7.3471828 -1.3526363 65.727272
5.5509005 7.3488998 -1.3527 66.200005
5.6500001 7.3559995 -1.3532223 66.333336
5.7521005 7.3429999 -1.3529999 66.300003
5.8494544 7.3470001 -1.3535454 66.545456
5.9485998 7.3566003 -1.354 64.5
6.0515561 7.3403339 -1.354 64.333336
6.1456251 7.3608747 -1.354125 64.625
6.2469997 7.3425546 -1.3541112 64.222221
6.3548999 7.3487 -1.3542 64.700005
6.4505 7.3518748 -1.354 66
6.5428004 7.3466005 -1.3543999 65.599998
6.6485 7.3601999 -1.3549999 65.800003
6.7533336 7.3383331 -1.3551111 67
6.85075 7.3536248 -1.355625 66.5
6.9432497 7.3365002 -1.3556249 66
7.039 7.3540001 -1.3547499 65
7.1593337 7.3424997 -1.3546667 66.5
7.2481432 7.356144 -1.3548571 67
7.3571672 7.3398337 -1.3555 67.666672
7.4497151 7.3547149 -1.3565714 68.857147
7.5592504 7.3604999 -1.35675 68.5
7.6526251 7.349 -1.35675 69.75
7.7515998 7.3582001 -1.3563999 68.800003
7.857286 7.3394289 -1.3558573 70.14286
7.9536247 7.3548751 -1.355125 69.125
8.0530005 7.3536673 -1.3553333 68.333336
8.1496248 7.3392496 -1.3555 69
8.2485714 7.3630004 -1.3550001 69.714287
8.3509998 7.3512497 -1.354 70.5
8.4565716 7.340857 -1.3535714 70.571434
8.5493336 7.3561668 -1.3533334 69.5
8.6423998 7.3587999 -1.3534001 68.800003
8.763834 7.3443336 -1.3533334 68.833336
8.8625002 7.3578334 -1.3535001 68.166672
8.9490004 7.3443336 -1.353 68
9.04175 7.35425 -1.353 68.5
9.155571 7.3422866 -1.3505715 66.857147
9.2516012 7.3507996 -1.3506 63.400002
9.3413334 7.3383331 -1.3510001 63
9.4507504 7.3474998 -1.352 61.5
9.5516672 7.3463335 -1.3533334 61.5
9.665 7.3406668 -1.3536667 61.333336
9.7616673 7.3366671 -1.3540001 61.333336
9.8431997 7.3513999 -1.3548001 61
9.9279995 7.3934999 -1.3545001 61
-5.9147501 7.4147506 -1.3189167 225.58334
-5.8645816 7.4546275 -1.3327676 179.58139
-5.7542505 7.4569163 -1.3538332 107.33334
-5.6486373 7.4558177 -1.354818 95.090912
-5.5470009 7.4462729 -1.3549999 92.636368
-5.4537501 7.4536667 -1.3556666 90.5
-5.3502502 7.4491673 -1.3570002 83.833336
-5.2490001 7.4388003 -1.3570002 79.800003
-5.1517277 7.4562736 -1.3570002 79
-5.0548463 7.4576921 -1.3577693 76.615387
-4.9524546 7.4446363 -1.357909 75.090912
-4.8518338 7.4443331 -1.3577499 75.25
-4.7515001 7.4459167 -1.3583335 75.833336
-4.6535835 7.4568338 -1.3584168 76.166672
-4.5532312 7.448308 -1.3588462 76.46154
-4.4555383 7.4508471 -1.3593079 75.92308
-4.3573847 7.4543853 -1.3596153 74.46154
-4.2562308 7.449461 -1.3590771 72.153847
-4.1507692 7.4508467 -1.3585385 72.46154
-4.0472145 7.4443574 -1.358 73
-3.9475386 7.4474626 -1.358 73.153847
-3.8539996 7.4518571 -1.3584285 72.714287
-3.7547858 7.4423571 -1.359 72.857147
-3.6532307 7.4486151 -1.3592309 74.076927
-3.5538237 7.446353 -1.3592941 75.235298
-3.4481254 7.4497495 -1.3595002 76.3125
-3.3512666 7.4432673 -1.3590666 76.666672
-3.2493336 7.4525337 -1.3592668 78.800003
-3.1660001 7.4391823 -1.3595455 76.090912
-1.6422307 7.4532309 -1.3576922 68.230774
-1.5313333 7.4554443 -1.3548889 70.111115
-1.475 7.4420919 -1.3550907 68.636368
-0.35054547 7.4505911 -1.3534546 73.136368
-0.24744999 7.4523501 -1.3539501 72
-0.15110525 7.4484744 -1.354421 71.789474
-0.050590914 7.4492278 -1.354091 71.727272
0.042814817 7.4475193 -1.354074 72.222221
0.14863637 7.4506826 -1.3551817 72.636368
0.24978946 7.449368 -1.3551576 69.368423
0.34935001 7.4505997 -1.3549498 69.950005
0.45045 7.4522004 -1.3548998 69.75
0.54978955 7.4505262 -1.3549998 73.157898
0.65119046 7.4507151 -1.3549521 71.619049
0.75100005 7.448833 -1.3543333 71.833336
0.85031581 7.4485788 -1.3542631 73.421051
0.95215005 7.4484496 -1.3545499 72.800003
1.0500556 7.4469438 -1.3553331 70
1.1515 7.4530005 -1.3565556 70.055557
1.2493334 7.4497623 -1.3575239 72
1.345 7.4512219 -1.3576666 72.666664
1.449591 7.4494095 -1.3585453 75.5
1.5488948 7.4483147 -1.3583683 72.052635
1.6497 7.4504504 -1.3579999 69.900002
1.7516114 7.4487228 -1.3579999 69.944443
1.8523003 7.4485507 -1.3579999 70.400002
1.9517776 7.4496102 -1.3567222 69.722221
2.0496666 7.445888 -1.3558331 69.111115
2.1498885 7.4511676 -1.3557775 69.888893
2.25125 7.4513125 -1.3556874 70.4375
2.3518238 7.4497061 -1.3550586 70.470589
2.4496667 7.4522667 -1.3549999 70.666672
2.5453892 7.446444 -1.3549998 70.944443
2.6493752 7.4486246 -1.3549373 70.3125
2.7482352 7.452764 -1.3544116 70.529411
2.8483129 7.4489999 -1.3539375 70.3125
2.9499371 7.4517503 -1.354125 69.1875
3.0529335 7.4516668 -1.3534669 68.066673
3.1526875 7.4475622 -1.3533751 68.0625
3.2486923 7.4513078 -1.3536923 67.846153
3.3496001 7.4501338 -1.3541334 67.800003
3.4467146 7.4538579 -1.3536429 67.428574
3.5456667 7.4462667 -1.3530002 67.066673
3.648067 7.4494677 -1.3528668 67.26667
3.7482147 7.4426432 -1.3523573 66.571434
3.850667 7.4495339 -1.3526002 66.600006
3.9520004 7.4480839 -1.3531666 66
4.0488462 7.4505382 -1.354 65.46154
4.1507502 7.4490829 -1.3537501 67.416672
4.247786 7.4459286 -1.3535714 67
4.3480005 7.454154 -1.3530769 66.230774
4.4512148 7.4486432 -1.3530716 67.14286
4.5495834 7.4526668 -1.3524168 68.166672
4.6476669 7.4474173 -1.3527501 68.083336
4.7513638 7.4515452 -1.3529091 67.272728
4.8484545 7.4433646 -1.3531818 66.636368
4.9439998 7.4537005 -1.3533 66.400002
5.0473638 7.4455457 -1.3529091 67.090912
5.149909 7.4475455 -1.3521819 66.727272
5.2454543 7.4446363 -1.3519093 66.090912
5.3459091 7.4525461 -1.3518183 65.272728
5.449667 7.4423327 -1.3528888 65.333336
5.5495458 7.4508185 -1.3529999 65.36364
5.6458006 7.4494004 -1.3532 66.400002
5.746273 7.4447274 -1.3536364 66
5.8476663 7.4548893 -1.3533332 65.666664
5.9450002 7.4498887 -1.3536667 66.222221
6.0482726 7.4434547 -1.3542727 65
6.1525555 7.4504447 -1.3543335 64.555557
6.2504001 7.4481006 -1.3539001 64.300003
6.3503332 7.4473333 -1.3541112 63.888889
6.4544997 7.4598999 -1.354 64.800003
6.5541668 7.4421668 -1.354 65
6.6411247 7.4573755 -1.3543751 64.875
6.7485552 7.4410009 -1.3548887 65.777779
6.8466673 7.4438334 -1.3548334 66
6.9458003 7.4415002 -1.3549999 65.800003
7.0538573 7.4560003 -1.3561429 65.14286
7.151 7.4446664 -1.355889 64.777779
7.2508569 7.4520006 -1.3560002 66.571434
7.3537145 7.4450011 -1.3567144 67.571434
7.448143 7.4512863 -1.3570001 69.285721
7.5539999 7.4471436 -1.357143 69.857147
7.6463332 7.4483333 -1.3575001 70.333336
7.7553329 7.4384995 -1.3563333 69.666672
7.8513746 7.4479995 -1.3562499 69
7.9486003 7.4545999 -1.3559999 69.400002
8.052 7.4365005 -1.3553333 68.333336
8.1494999 7.4603748 -1.3553748 68.875
8.2480001 7.44625 -1.355 69.25
8.35425 7.4381251 -1.354 69.5
8.4511671 7.4579997 -1.3533334 69
8.54 7.4412498 -1.35325 69
8.6486006 7.4430003 -1.3534001 68.400002
8.7387142 7.4518576 -1.353 67.571434
8.8522501 7.4435 -1.35375 67.25
8.9610004 7.4398336 -1.3535001 68
9.058857 7.4538579 -1.3528572 67.285721
9.1529999 7.4353333 -1.3526667 67.333336
9.2350006 7.4443336 -1.3503335 64.333336
9.3495712 7.4400001 -1.3520001 61.428574
9.4623337 7.4330001 -1.3533334 61
9.5639992 7.4359999 -1.354 61
9.6490002 7.4433336 -1.3545001 61.333336
9.7393999 7.4512 -1.3542001 61
9.8503332 7.4420004 -1.3556666 61.333336
9.961668 7.4483333 -1.3556666 60.666668
10.042334 7.4886665 -1.3570001 60.333336
-5.8199553 7.5224547 -1.3226364 218.63637
-5.7624168 7.5626397 -1.3355001 171.83333
-5.6558418 7.5681586 -1.3452106 124.78947
-5.5514445 7.54 -1.355 96.666664
-5.4486365 7.5564556 -1.3551817 92.454552
-5.3475385 7.553 -1.3563848 89.46154
-5.2493005 7.5393004 -1.3573002 83.800003
-5.1461821 7.5491829 -1.3576365 79.909096
-5.0457778 7.559 -1.3579999 78.555557
-4.9505835 7.5469999 -1.358 76.75
-4.8470774 7.551538 -1.358 76.538467
-4.7427502 7.543334 -1.3580832 77
-4.6506 7.5467005 -1.3579999 76.300003
-4.5567141 7.5511436 -1.3582857 77.5
-4.4519997 7.5488462 -1.3589232 76.769234
-4.35075 7.5524168 -1.3591669 74.583336
-4.2513852 7.5470772 -1.359077 72.230774
-4.1514001 7.5496001 -1.3584666 73.600006
-4.0495715 7.5520716 -1.3587143 73.857147
-3.9511669 7.5430002 -1.35825 72.083336
-3.8565001 7.5527859 -1.358 72.785721
-3.7520003 7.5420003 -1.3585881 72.705879
-3.6455626 7.5501246 -1.3594375 74.3125
-3.5483079 7.5520773 -1.3596156 75
-3.4554291 7.5455718 -1.3596431 75.785721
-3.3491337 7.5479341 -1.3593334 76.866669
-3.2494285 7.5455003 -1.3591429 77.357147
-3.1855001 7.5307503 -1.3592501 73.75
-1.701 7.5890002 -1.355 73
-1.6583077 7.5434613 -1.3556923 73.769234
-1.541786 7.5539999 -1.3549284 73.285721
-1.4863334 7.538167 -1.3551668 72
-0.403 7.5450001 -1.352 72
-0.34833339 7.5491104 -1.3530557 74.666664
-0.25004998 7.5478501 -1.3538001 72.700005
-0.15073685 7.5495267 -1.3542631 72.526314
-0.04831579 7.5522628 -1.354684 71.684212
0.042230774 7.5474615 -1.3537693 72.192314
0.15063637 7.5494547 -1.3534548 73.36364
0.24947368 7.547842 -1.354684 72.315788
0.34739995 7.5478997 -1.3546499 71.800003
0.44785708 7.5529051 -1.3546665 73.714287
0.54942101 7.5464215 -1.3542632 75.368423
0.64799994 7.5535998 -1.3547999 76.599998
0.75100011 7.5496497 -1.3549998 74.400002
0.8493889 7.5462785 -1.3548886 74.111115
0.9479413 7.5506468 -1.3555293 73.882355
1.0497369 7.5507903 -1.3561578 72.736839
1.1489445 7.5478883 -1.356889 74.166664
1.2482104 7.5547895 -1.3568424 77
1.3498948 7.5476317 -1.3572633 76.842102
1.4483529 7.546412 -1.3577058 77.294121
1.5449444 7.5526657 -1.3581666 77.055557
1.6490527 7.5508423 -1.3585788 72.421051
1.7515292 7.5491772 -1.3581764 71.058823
1.8451177 7.5478821 -1.3578824 70.705879
1.9468333 7.5508881 -1.3571668 73.944443
2.0494115 7.5486469 -1.3565296 69.705879
2.1536252 7.5506878 -1.3561872 70
2.2475624 7.5461254 -1.3559997 70.625
2.3496468 7.5495882 -1.3557645 70.411766
2.4483125 7.5474377 -1.355125 70.25
2.5486252 7.5466871 -1.3551248 70.9375
2.6477644 7.5482349 -1.3549998 70.470589
2.7469997 7.548667 -1.3540666 70.53334
2.8491178 7.5507059 -1.3544116 70.176468
2.9510002 7.5508461 -1.3553077 70.076927
3.048867 7.5500007 -1.3549333 69.333336
3.1497695 7.5527697 -1.3546922 67.615387
3.2501428 7.547286 -1.3549284 67.357147
3.352143 7.5501432 -1.3552142 67.785721
3.4500623 7.5531874 -1.3536251 65.8125
3.5482144 7.5450716 -1.353143 64.357147
3.6454616 7.5516925 -1.3532308 63.92308
3.7437143 7.5465002 -1.3529286 64.571434
3.848846 7.5508466 -1.3538462 65.846153
3.9570003 7.5489235 -1.3539231 67.307693
4.0567498 7.5455837 -1.3548331 67.25
4.1550713 7.5487142 -1.3538572 68.14286
4.2540002 7.5511436 -1.353 67.928574
4.3494167 7.5504165 -1.3526667 66.833336
4.4507694 7.5477695 -1.3524615 67.384621
4.5514164 7.5531669 -1.3521669 67.583336
4.652667 7.5413337 -1.3529166 67.75
4.7458177 7.5507274 -1.3534546 67.090912
4.8482499 7.5505004 -1.3541669 66.416672
4.9586005 7.5433002 -1.3544 65.900002
5.0539994 7.5444555 -1.3540001 66.36364
5.1492729 7.5551825 -1.3533636 66.727272
5.2477274 7.5484552 -1.3528181 66.909096
5.3461118 7.545445 -1.3517779 65.333336
5.4478183 7.5437279 -1.3529091 64.727272
5.5469003 7.5531006 -1.3534 65.400002
5.6467776 7.5506668 -1.3537778 65.555557
5.7506671 7.5372224 -1.3533332 65.888893
5.8458748 7.5471249 -1.354 65.875
5.9460001 7.5529995 -1.3533636 64.909096
6.0464444 7.5466676 -1.354 65.555557
6.1486368 7.5547271 -1.3542728 65.909096
6.253778 7.5558887 -1.354 64.444443
6.3573751 7.5372496 -1.354 64
6.4512496 7.5611243 -1.354 64
6.5556993 7.5387001 -1.3538001 64.599998
6.6501431 7.5548568 -1.354 64.571434
6.7505999 7.5493007 -1.3547 65
6.8533335 7.5435553 -1.3548887 65
6.9586253 7.5592504 -1.35575 64.875
7.0606666 7.5390005 -1.3563333 64.833336
7.151875 7.5568752 -1.3562499 64.625
7.261333 7.5413337 -1.3563333 65.333336
7.3518748 7.5561247 -1.3568751 67
7.463429 7.5370002 -1.3570001 68.714287
7.5567503 7.5547495 -1.3575001 68.875
7.6563997 7.5324006 -1.3573999 70
7.7454443 7.5430002 -1.356889 69.777779
7.8361673 7.5629997 -1.3568333 68.833336
7.950429 7.5397148 -1.3562857 68.428574
8.0445004 7.5525002 -1.3555 69.125
8.1375713 7.5631428 -1.3544288 68.285721
8.2508574 7.5341434 -1.3541429 68.714287
8.3500004 7.556778 -1.3534445 68.111115
8.4470005 7.5587502 -1.353 67.5
8.5487137 7.5347147 -1.353 68
8.6432867 7.5604286 -1.353 67.571434
8.7537508 7.5365 -1.35375 66.75
8.8455009 7.5431671 -1.3538334 65.666672
8.9422007 7.5404 -1.354 66
9.0613327 7.552 -1.3536667 66.333336
9.1548328 7.5423336 -1.3533334 65.666672
9.2484283 7.5517144 -1.3532857 65.714287
9.3533335 7.5396667 -1.3523334 62.666668
9.4581671 7.5361667 -1.3533334 62
9.5494995 7.5505004 -1.3533334 61.333336
9.63375 7.5485001 -1.35375 61
9.7592506 7.5482497 -1.35525 60
9.8382502 7.5304999 -1.3555 59.75
9.9476671 7.5353332 -1.3573334 60.333336
10.053333 7.5559998 -1.3570001 61.333336
10.152 7.56075 -1.357 61.75
10.237 7.5939999 -1.357 62
-5.7293124 7.6144991 -1.3215626 149.5
-5.6328821 7.6284699 -1.3261176 164.64706
-5.5709524 7.6519995 -1.3423333 132.7619
-5.4489002 7.6503 -1.355 92
-5.3499093 7.6565452 -1.3555454 91
-5.2435389 7.6463847 -1.3575386 87.538467
-5.1503997 7.6507998 -1.3579999 82.5
-5.0499163 7.6496658 -1.358 79.666672
-4.9493003 7.6496005 -1.3579999 77.800003
-4.8485456 7.6509094 -1.3579999 76.545456
-4.7478333 7.6470833 -1.358 76.5
-4.6483335 7.6466665 -1.358 76.666672
-4.5423574 7.6529284 -1.3582143 77.714287
-4.4446669 7.6467505 -1.3584168 76.833336
-4.3574548 7.6521826 -1.3589091 75.818184
-4.2566004 7.6496668 -1.3592669 73.466667
-4.1427498 7.6494999 -1.3583333 73.75
-4.0455837 7.6530833 -1.3585 75.25
-3.9501541 7.6460004 -1.3583847 72.538467
-3.8474166 7.6464167 -1.3579167 73.083336
-3.7463577 7.6531434 -1.3583571 71.785721
-3.6539283 7.646071 -1.3587143 74.285721
-3.5493574 7.6503572 -1.3590715 74.714287
-3.4503336 7.6460667 -1.3591999 75.53334
-3.3552668 7.6494007 -1.3596002 77.000008
-3.2615714 7.6450005 -1.3595001 74.928574
-1.7063334 7.6593337 -1.3553333 71.666672
-1.6719999 7.6402493 -1.355125 73.75
-1.5477335 7.6538005 -1.3551333 74.000008
-1.4923334 7.6270003 -1.355 70
-0.40599999 7.6030002 -1.353 72
-0.35329998 7.6503 -1.35265 77.900002
-0.24968421 7.646842 -1.3535264 73
-0.15099999 7.6529441 -1.3543888 72.777779
-0.054526318 7.6466837 -1.3546314 72.947372
0.039799996 7.6478806 -1.35376 71.519997
0.14817646 7.6521177 -1.353353 71.411766
0.25004762 7.6488094 -1.3540477 73.714287
0.35155559 7.6508899 -1.3546664 72.777779
0.45294443 7.650167 -1.3540556 73.833336
0.54988891 7.6481662 -1.3546665 76.055557
0.64927787 7.6535001 -1.3545555 77.5
0.74935299 7.6521769 -1.3549998 77.823532
0.84831578 7.6485257 -1.3551049 76.631577
0.95063162 7.6450534 -1.3552102 77.631577
1.0487999 7.6539001 -1.3553997 79.050003
1.149 7.6459041 -1.355381 82
1.2518948 7.6492629 -1.3554736 82.84211
1.3503685 7.6466842 -1.3559473 82.84211
1.4484 7.6487999 -1.35675 80.849998
1.5480587 7.6504121 -1.3575295 80.352943
1.6470555 7.6491666 -1.3586665 79.277779
1.7484739 7.6525259 -1.358421 76.421051
1.8497647 7.652823 -1.3585881 74.764709
1.9493749 7.6533751 -1.3579375 73.9375
2.0467498 7.6475005 -1.3576875 72.125
2.1455624 7.6503129 -1.3575001 71.6875
2.2465 7.6460624 -1.3568126 71.1875
2.3462501 7.6529374 -1.356375 71.1875
2.4493124 7.6464996 -1.3559372 70.4375
2.5501251 7.6460619 -1.3556249 71.4375
2.6516247 7.6504998 -1.3550622 71.3125
2.7498751 7.649375 -1.3544998 70.0625
2.8473573 7.6492858 -1.3545001 69.214287
2.9492667 7.6466675 -1.3553998 70.066673
3.047786 7.6512146 -1.3557857 69.571434
3.1469333 7.6500673 -1.3557333 67.466667
3.2510002 7.6488004 -1.3553998 66.53334
3.3520625 7.6512494 -1.3547498 68.4375
3.4469171 7.6460829 -1.3538334 64.333336
3.5487695 7.6494617 -1.3544617 62.846157
3.6487272 7.6484551 -1.3547271 63.454548
3.7429998 7.6516366 -1.3549999 64.272728
3.8509998 7.6500006 -1.3556666 65.333336
3.9527335 7.6517344 -1.3547332 67.200005
4.0603337 7.646667 -1.3540002 68
4.1553078 7.6501536 -1.3537693 68.307693
4.25 7.6526365 -1.3531817 67.909096
4.3557692 7.6484613 -1.3528461 67.384621
4.451818 7.6493635 -1.3529999 66.636368
4.5453639 7.6526365 -1.3530909 66.272728
4.6487274 7.6461816 -1.3534546 66.636368
4.7497272 7.652091 -1.3543636 66.636368
4.8533335 7.643889 -1.355 66.555557
4.944818 7.6411829 -1.3549999 66.454544
5.0464168 7.6530838 -1.3549165 66.083336
5.1480002 7.6517777 -1.3544445 66.555557
5.2525458 7.6519098 -1.3533636 66.727272
5.3543 7.6369004 -1.3522 65.700005
5.4486995 7.6489005 -1.3527001 64.700005
5.5482225 7.6525559 -1.3536667 65.555557
5.6490998 7.6515002 -1.3541001 65.400002
5.7475457 7.6360006 -1.3538183 65.545456
5.8499093 7.6514549 -1.3537272 65.545456
5.9466672 7.6556668 -1.354 65.777779
6.0594997 7.6475005 -1.354 64.625
6.1536245 7.6573749 -1.3538749 65.625
6.2452226 7.6471119 -1.353889 65.444443
6.3458886 7.6431108 -1.3537778 63.777779
6.4446664 7.6613331 -1.3538889 63.666668
6.5518894 7.6422219 -1.3536667 63.777779
6.6494999 7.6465006 -1.3535001 63.833336
6.7466249 7.6508751 -1.35425 64.625
6.849143 7.6501436 -1.3545716 64.714287
6.9486666 7.6613331 -1.3553334 64.666664
7.0527501 7.6426253 -1.3559999 64.75
7.1401672 7.6563334 -1.3565 64.666672
7.2540002 7.6454997 -1.357125 63.25
7.3485999 7.6561999 -1.3578001 64.599998
7.454875 7.6427498 -1.3575001 67
7.5429997 7.6554999 -1.3575 67
7.6491251 7.6375003 -1.3578749 68.5
7.7455716 7.6662865 -1.3577144 68.285721
7.8549995 7.6503997 -1.357 68.400002
7.9419999 7.6462498 -1.3565 68.125
8.0400009 7.6600008 -1.3553333 67.166672
8.1582003 7.6514001 -1.3542001 67
8.247858 7.6547146 -1.354 65.857147
8.3424997 7.6462498 -1.3535 66
8.456501 7.6475005 -1.3535001 65.666672
8.5445004 7.656167 -1.3533334 65.5
8.6393337 7.6533332 -1.3536667 65.666672
8.7391424 7.6441431 -1.3532857 65.571434
8.8358002 7.6584001 -1.3546001 65.599998
8.9483337 7.6308336 -1.3548334 65.833336
9.0431433 7.6531429 -1.3547143 65.571434
9.1421995 7.6464 -1.354 65.599998
9.2520008 7.6619997 -1.354 65
9.3456249 7.6407499 -1.35325 65.125
9.4531431 7.6595716 -1.3522857 62.428574
9.5469999 7.6465001 -1.3525 60
9.6570005 7.6492004 -1.3544 58.799999
9.7420006 7.6234999 -1.3555 59
9.8443336 7.6340003 -1.3576667 59.666668
9.942667 7.6505008 -1.3590001 60.5
10.045799 7.6416001 -1.3584001 62
10.1455 7.6355 -1.3559999 62
10.238001 7.6543331 -1.3553333 61.333336
10.331 7.6735001 -1.3559999 60.5
-5.6129165 7.7560835 -1.3244168 138.83334
-5.5672002 7.7667661 -1.3416998 127.53334
-5.4481006 7.7518997 -1.3549999 94.400002
-5.3513999 7.7543998 -1.3556999 92.099998
-5.2503638 7.7497277 -1.357091 91.545456
-5.1448002 7.7471004 -1.3579999 85
-5.0428185 7.7541823 -1.357909 80.636368
-4.9470997 7.7459998 -1.3580999 78.300003
-4.8509998 7.7466364 -1.3579999 77
-4.7488179 7.7540002 -1.3579999 76.090912
-4.6525459 7.7448187 -1.3579999 77.090912
-4.5533638 7.7513638 -1.3579999 76.909096
-4.4466157 7.7489238 -1.3579232 76.46154
-4.342154 7.7463078 -1.3580769 75.615387
-4.2406435 7.7539282 -1.358 74.14286
-4.1421542 7.7510777 -1.3583846 74.46154
-4.0483637 7.7536373 -1.3582728 75.36364
-3.9496002 7.7450008 -1.3582666 74.53334
-3.8418462 7.7421541 -1.3582308 74.230774
-3.7493334 7.7526665 -1.358 72.666672
-3.6502006 7.7485332 -1.358 73.666672
-3.551286 7.7489295 -1.3582857 73.928574
-3.4529288 7.7426438 -1.3589286 74.714287
-3.3506429 7.7515006 -1.359 77.285721
-3.2835002 7.7531672 -1.3591666 72
-1.7202858 7.7480001 -1.3561428 73.14286
-1.67625 7.7471247 -1.3558749 70.375
-1.5533 7.7484002 -1.3519499 68.900002
-0.40350002 7.7375002 -1.352 80.5
-0.34617642 7.7474113 -1.3518821 79.352943
-0.25258824 7.7484121 -1.3534707 74.470589
-0.14794445 7.7489438 -1.3544444 73.333336
-0.046999998 7.7468233 -1.354941 72.235298
0.046652179 7.7499571 -1.3543477 71.565216
0.15022223 7.7498331 -1.3531111 71
0.2482778 7.7475562 -1.352778 73.388893
0.34740004 7.7522502 -1.3541001 75.200005
0.44966665 7.7501111 -1.3542778 74.333336
0.55011111 7.7480011 -1.3539444 76
0.65116674 7.7525549 -1.3548331 79.222221
0.74652952 7.7482352 -1.3549998 81.411766
0.84722221 7.7506104 -1.3552777 82.388893
0.94794738 7.749053 -1.3548945 80.842102
1.0480587 7.7492361 -1.3542354 80.235298
1.1465296 7.7477641 -1.3544117 81.941177
1.2464374 7.7485623 -1.3549998 83.8125
1.3449374 7.7454371 -1.3550622 82.3125
1.4443123 7.7530622 -1.3561249 79.625
1.5435293 7.7478828 -1.3571767 81.176468
1.6493157 7.7481055 -1.3577894 82.947372
1.7515297 7.7489409 -1.3576471 82.117645
1.8539374 7.7508755 -1.3579375 80.6875
1.9502001 7.7471337 -1.3581333 79.200005
2.0519376 7.7470002 -1.3579999 77.125
2.1505334 7.7511334 -1.3579334 75.133339
2.2470627 7.7491875 -1.3576875 73.75
2.3475332 7.7530003 -1.3571335 73.200005
2.4490626 7.7486877 -1.3563125 72
2.5527334 7.7444005 -1.3559998 72.466667
2.6533999 7.7509336 -1.3552666 71.466667
2.7482309 7.7509236 -1.3552307 70.46154
2.8515713 7.7497144 -1.3558573 68.857147
2.9517145 7.7462144 -1.3564286 68.571434
3.0502501 7.7465835 -1.3566666 68.166672
3.1502304 7.7536159 -1.3564615 66.307693
3.2487142 7.7517867 -1.3562857 65.14286
3.3457692 7.7495384 -1.3546153 64.307693
3.4475384 7.7413845 -1.3545386 64.076927
3.546917 7.7506666 -1.3559167 63.333336
3.6463847 7.7519236 -1.3563077 63.92308
3.7498465 7.7486925 -1.3568462 64.92308
3.851429 7.7499294 -1.3561428 66.785721
3.9499166 7.7471671 -1.35475 68
4.052917 7.7477508 -1.3539166 67.833336
4.1557503 7.7531672 -1.3536667 68.083336
4.2511821 7.7420006 -1.3533636 68.36364
4.3496671 7.7485828 -1.3535832 67.416672
4.4507275 7.7574549 -1.3537273 67
4.5516367 7.7475448 -1.3538183 65.909096
4.6527276 7.7465463 -1.354091 66.090912
4.7557778 7.7459998 -1.3547777 66.333336
4.8451672 7.7424998 -1.3550832 66.666672
4.9445834 7.7504158 -1.3550832 66.916672
5.0513 7.7518997 -1.3550999 66.200005
5.1504545 7.7493644 -1.3549999 66.636368
5.2466369 7.7530909 -1.3548182 67.181824
5.3491111 7.7411108 -1.3533334 65.777779
5.4500999 7.7533998 -1.3533 65.300003
5.5539007 7.7486 -1.3536 65.5
5.6517005 7.7569003 -1.354 65.5
5.7493339 7.7443337 -1.354 65.555557
5.8435001 7.7554998 -1.3534999 64.625
5.9456663 7.7505555 -1.354 65.444443
6.0493999 7.7467995 -1.3542 65.400002
6.1511431 7.7457147 -1.354 64.428574
6.2467775 7.7567782 -1.3535554 64.555557
6.355 7.7393751 -1.35375 64.25
6.4495721 7.754715 -1.3537143 63.428574
6.5486665 7.7518897 -1.3541112 63.777779
6.6458755 7.7426248 -1.354 62.875
6.7431107 7.7553329 -1.354 63.444447
6.8570004 7.7450004 -1.3541429 64
6.9465008 7.7523336 -1.3548334 63.833336
7.0504999 7.7466669 -1.3556666 63.666668
7.148572 7.7458577 -1.3567144 63.714287
7.2471251 7.754375 -1.357625 63.5
7.3594999 7.7468333 -1.3585 63.166668
7.440834 7.7381668 -1.3581667 64.666672
7.5544 7.7370005 -1.3584 66.400002
7.6418576 7.7560005 -1.3590001 66.285721
7.7420006 7.75 -1.3582499 67.75
7.8483753 7.7483749 -1.357625 67.375
7.9468002 7.7552004 -1.357 67.800003
8.0600004 7.7436666 -1.3559999 67.166672
8.1473331 7.7555003 -1.355 66
8.2392502 7.7449999 -1.354 65.5
8.3518581 7.7430005 -1.3545716 64.857147
8.4446001 7.7579994 -1.354 64.800003
8.552 7.7602501 -1.3545001 64.5
8.6451664 7.7461662 -1.3545002 64.666672
8.7443333 7.7630005 -1.3543333 65.166672
8.8607502 7.7505002 -1.3545001 65
8.948143 7.7565718 -1.3544286 65.571434
9.0353336 7.7443342 -1.354 65.666672
9.1520004 7.7485003 -1.355 65.166672
9.2416668 7.7515001 -1.3543334 65
9.3307505 7.7565002 -1.35425 64
9.4537506 7.7687502 -1.3540001 62.5
9.5440006 7.7427502 -1.3527501 59.5
9.6333342 7.7653341 -1.3556666 58
9.7539997 7.7382007 -1.3583999 58.200001
9.849 7.7275 -1.3585 60
9.9390011 7.7476668 -1.3593334 61
10.057167 7.7388339 -1.3584999 62.666668
10.148667 7.7480001 -1.3570001 62.333336
10.246857 7.7622862 -1.3560002 60.857147
10.3445 7.744 -1.3559999 59.5
10.441 7.7653332 -1.3556666 59
-5.5408335 7.8505716 -1.3271428 164.92857
-5.4530005 7.8527489 -1.3537501 107.16667
-5.3443999 7.8540001 -1.3551998 94.900002
-5.248909 7.83991 -1.3560909 92.727272
-5.1491814 7.8471823 -1.3574547 87.909096
-5.0516996 7.8507004 -1.3579999 82.400002
-4.9498329 7.850667 -1.3580832 79.333336
-4.8520999 7.8474998 -1.3583 77.599998
-4.7544003 7.8471999 -1.3582 76.599998
-4.653182 7.8510919 -1.3579999 76.090912
-4.5555835 7.8451667 -1.3570836 75.666672
-4.45225 7.8480844 -1.3573335 73.833336
-4.3503332 7.8510833 -1.3575834 73.166672
-4.2481823 7.8516369 -1.3576365 74
-4.1498184 7.8470011 -1.3579999 75.090912
-4.0468459 7.8479242 -1.3579232 74.538467
-3.9467502 7.8500843 -1.3579167 75.333336
-3.8479371 7.8503752 -1.3579373 75.3125
-3.7432308 7.8539228 -1.3579232 74.384621
-3.6473336 7.8476667 -1.3575 73.416672
-3.5511334 7.8536 -1.3574668 72.600006
-3.4507146 7.8434296 -1.3587857 74.428574
-3.3546925 7.8496919 -1.3586154 75.92308
-1.7337275 7.8497276 -1.3559999 75
-1.691 7.8200002 -1.355 73
-1.536 7.8143339 -1.3493335 63.666668
-0.41299999 7.8610001 -1.3510001 79.666672
-0.35163158 7.8477373 -1.3515788 80.210526
-0.2482105 7.8470526 -1.3531581 77.473686
-0.14935294 7.8471169 -1.3547645 76.176468
-0.047647063 7.8502359 -1.3558233 75.705879
0.043041669 7.8489585 -1.3550832 73.875
0.15086667 7.8497338 -1.3540001 70.733337
0.25299999 7.8463531 -1.3525294 71.176468
0.35377777 7.8522229 -1.3527778 74.555557
0.44555554 7.8508887 -1.3533888 77.722221
0.54730004 7.8502502 -1.3534502 74.650002
0.64944446 7.8506665 -1.3534443 79.222221
0.74894452 7.8444443 -1.3542221 84.222221
0.84788895 7.8494439 -1.3541666 84.555557
0.94699997 7.8489408 -1.354 82.235298
1.0522941 7.8464112 -1.3542353 79.529411
1.1524376 7.8504376 -1.3546249 83.4375
1.2476113 7.849555 -1.3549441 85.222221
1.3496666 7.8471665 -1.3559443 83.055557
1.4535884 7.8532939 -1.3564119 81.235298
1.551 7.8514376 -1.3566877 83.25
1.6481111 7.8450556 -1.356889 84.5
1.7548751 7.8466249 -1.3570627 83.25
1.8516251 7.8472505 -1.3575001 84.375
1.9473751 7.8468127 -1.3577499 83.5625
2.0435295 7.8472943 -1.3579999 82.705879
2.1477499 7.8519378 -1.3581249 79.4375
2.2509334 7.8493338 -1.3580667 76.53334
2.3510668 7.8492002 -1.3574668 75.733337
2.4509335 7.8490009 -1.3570004 74.000008
2.5479288 7.8446436 -1.3560714 73.571434
2.6475334 7.8520002 -1.3561331 72.53334
2.7526431 7.8486428 -1.3561429 70.428574
2.8495717 7.8510714 -1.3567145 69.714287
2.9513998 7.8512001 -1.3570004 68
3.0518668 7.8438673 -1.3569336 68.400002
3.1496665 7.8526673 -1.3572001 66.733337
3.2510769 7.8513851 -1.3562309 64.769234
3.3428183 7.8493633 -1.3564545 63.36364
3.44275 7.842 -1.3560834 62.416668
3.5498338 7.8440838 -1.3568335 63.083336
3.6465001 7.855001 -1.3570836 63.583336
3.7474618 7.8503075 -1.3569232 66.153847
3.8518572 7.8492866 -1.3564286 68
3.9521539 7.8474617 -1.3550768 68.076927
4.0512309 7.8484621 -1.3541539 68.153847
4.1455455 7.8513641 -1.3540001 67.909096
4.245091 7.8456359 -1.3537273 67.545456
4.3399167 7.8482504 -1.354 66.833336
4.4533634 7.8489099 -1.3539091 66.636368
4.5503001 7.8493996 -1.3544 66.300003
4.6493635 7.8460917 -1.354818 65.545456
4.7485456 7.838819 -1.354818 65.636368
4.849 7.8538184 -1.3551818 65.36364
4.9552002 7.8480005 -1.3549999 66.300003
5.0538001 7.8487 -1.3552998 66.300003
5.1510911 7.8552732 -1.355091 66.181824
5.2525558 7.8564444 -1.3546666 65.777779
5.3485451 7.8396373 -1.3541819 66.909096
5.4511113 7.8532224 -1.353889 65.555557
5.5444002 7.855701 -1.3533 65.400002
5.6421251 7.8496246 -1.35375 65.5
5.7481108 7.8451114 -1.354 65.444443
5.8534441 7.8478894 -1.3541112 64.444443
5.9491248 7.8548746 -1.3543749 64
6.0483336 7.8547769 -1.3541112 65.111115
6.1531115 7.8378892 -1.3546666 64.777779
6.2513752 7.85675 -1.354625 64.125
6.3507776 7.8521109 -1.353889 63.444447
6.448 7.8452497 -1.354 62.875
6.5465717 7.8512859 -1.3541429 63.14286
6.6595716 7.8448577 -1.354 63.14286
6.7524285 7.8540006 -1.3541429 62.285717
6.8495002 7.8467503 -1.35425 62.625
6.9520006 7.8495712 -1.3552858 63.285717
7.0428581 7.8462868 -1.3555714 62.857147
7.1503344 7.8366671 -1.3565 63.166668
7.2396669 7.8615007 -1.3575 63
7.3514996 7.8463755 -1.3587501 63.25
7.4580011 7.8378577 -1.3591429 62.857147
7.5558753 7.85425 -1.35975 64.25
7.6540003 7.8506007 -1.3598001 66.200005
7.7517495 7.8478746 -1.3587501 67.25
7.8428578 7.860714 -1.3578572 67.571434
7.9576674 7.8465004 -1.3575001 67.833336
8.0498753 7.85075 -1.3565 67.75
8.1446667 7.8413334 -1.3553333 67.666672
8.2488747 7.8422503 -1.3548751 65.5
8.3493996 7.8465996 -1.355 65
8.4629993 7.8459997 -1.35475 65.5
8.5445004 7.8520002 -1.3541667 65.166672
8.6372004 7.8554001 -1.3544 65.599998
8.7487497 7.8492498 -1.3542501 65.75
8.8448582 7.8552861 -1.3542857 65
8.9536667 7.8520002 -1.354 65
9.0446005 7.8434 -1.354 63.600002
9.1348 7.8576007 -1.3548001 63.799999
9.2565002 7.8634996 -1.35525 63.75
9.3627996 7.8550005 -1.3556 62.799999
9.4596672 7.843667 -1.3559999 62
9.5679998 7.8726668 -1.3563333 62.333336
9.6582499 7.8560004 -1.3582499 59.5
9.7555008 7.8540001 -1.3605 59.5
9.8528576 7.8405709 -1.3607143 61.428574
9.9490004 7.8565001 -1.3593334 62.666668
10.050333 7.8343334 -1.3583333 62.333336
10.152667 7.8526664 -1.3559999 63.333336
10.262333 7.8756666 -1.3563333 61
10.351801 7.8541999 -1.3559999 59.400002
10.4455 7.85075 -1.35575 58.75
10.561001 7.8649998 -1.3575001 58
10.622 7.8790002 -1.357 58
-5.5079999 7.9000001 -1.311 223
-5.4574075 7.9487548 -1.3297346 185.59183
-5.3560829 7.9547501 -1.3545833 103.58334
-5.2458186 7.9501824 -1.3554546 90.636368
-5.1536369 7.9460907 -1.3565454 88.272728
-5.053546 7.9520912 -1.3577273 82.909096
-4.9549003 7.9507995 -1.3579999 80.099998
-4.8549089 7.9515457 -1.3580909 78.545456
-4.7573643 7.9417276 -1.3579999 77.36364
-4.6567001 7.9516001 -1.3579999 75
-4.5462499 7.9514174 -1.3575834 73.416672
-4.4461002 7.9456 -1.3578 73.800003
-4.3486667 7.954 -1.358 73.916672
-4.2492499 7.949667 -1.3579167 75.416672
-4.1511812 7.9500914 -1.3580908 76
-4.0507693 7.9479232 -1.358 75.538467
-3.9546001 7.9514008 -1.3576001 74.800003
-3.8551664 7.9498339 -1.3570836 75
-3.7523332 7.9510012 -1.3571668 75.083336
-3.6540003 7.9494624 -1.3576155 73.307693
-3.5527275 7.9539099 -1.3576365 73.545456
-3.4526875 7.9468122 -1.3582499 75.8125
-3.3643332 7.9483333 -1.3586668 69.833336
-1.7482727 7.9494543 -1.3563637 76
-0.75366676 7.9616671 -1.352 81
-0.41174999 7.9464998 -1.3512499 81
-0.35018751 7.9464374 -1.3512498 80.0625
-0.24882354 7.9482942 -1.352353 80
-0.15066667 7.9460549 -1.3537223 82.111115
-0.053470585 7.9472942 -1.3548822 82.176468
0.04143478 7.9500003 -1.3550434 78.217392
0.15382352 7.9475293 -1.3541765 72.882355
0.25118747 7.9498749 -1.353375 69.4375
0.34793332 7.9490008 -1.3522003 71.53334
0.45006248 7.9465628 -1.3521876 74.8125
0.54546672 7.9529996 -1.353 71.800003
0.64505887 7.9505291 -1.352706 72.411766
0.74811113 7.9422779 -1.3525556 78.333336
0.84637505 7.9490004 -1.3535625 80
0.94840002 7.948267 -1.3544667 81.466667
1.0491875 7.9498124 -1.3549998 81.4375
1.1484375 7.948813 -1.3547498 82.75
1.2508 7.9498 -1.3549333 84.26667
1.3521764 7.9509411 -1.3553528 84.941177
1.4512502 7.9493752 -1.3554373 83.875
1.5520589 7.9504118 -1.3555291 83
1.650647 7.945118 -1.3557645 83.235298
1.7511251 7.947875 -1.3565626 83.5
1.8473333 7.950067 -1.3566668 84.333336
1.946 7.9441328 -1.3572001 84.600006
2.0502501 7.9506869 -1.3573751 83.6875
2.1499999 7.9479337 -1.3578668 81.133339
2.2523332 7.947401 -1.3580667 78.866669
2.3515 7.9506435 -1.3582143 77.571434
2.4509287 7.9492855 -1.3575715 76.928574
2.5502858 7.9460721 -1.3569286 75.857147
2.6518571 7.9552855 -1.3567146 74.071434
2.7505386 7.947154 -1.3570002 71.692314
2.8484619 7.951231 -1.3570002 70.230774
2.9521432 7.9550719 -1.3567145 67.357147
3.0518572 7.9467144 -1.3565001 66.428574
3.1501541 7.9494615 -1.3565384 65.46154
3.2502499 7.9475837 -1.3570001 64.916672
3.3545833 7.9496665 -1.3575 64.25
3.4488335 7.9460831 -1.3577499 63.75
3.5457501 7.9452496 -1.35825 63.583336
3.6424549 7.9535456 -1.3585454 63.909092
3.7447858 7.951786 -1.3575 66.428574
3.8478336 7.9504166 -1.3563333 68.666672
3.9534166 7.9485011 -1.3552501 68.166672
4.0507503 7.9513335 -1.3547499 67.666672
4.1529994 7.948 -1.3546666 68.111115
4.2445455 7.9462733 -1.3546363 67.454544
4.3556366 7.9456358 -1.3549091 65.909096
4.4547272 7.9507275 -1.3546363 65.36364
4.5563002 7.9516997 -1.3548998 65.599998
4.6495457 7.9434547 -1.3551817 65.636368
4.7509999 7.9529095 -1.3552727 64.909096
4.8486252 7.94175 -1.355125 64.625
4.9475002 7.9522505 -1.35575 65.333336
5.0458894 7.9496665 -1.355889 65.777779
5.1457 7.9534006 -1.3550001 66
5.2437778 7.9512229 -1.3547779 65.888893
5.3503633 7.9490919 -1.3546363 65.909096
5.457572 7.9425716 -1.3547143 65.428574
5.54775 7.958375 -1.35425 64.625
5.6506362 7.9446373 -1.3538183 64.727272
5.7497497 7.9543753 -1.3543751 64.875
5.8508754 7.9432502 -1.3547499 65
5.9571252 7.9505 -1.3554999 64.375
6.0481253 7.9596243 -1.355125 64
6.1492505 7.9464998 -1.355 65.375
6.2445722 7.9480004 -1.3548571 65.14286
6.3501115 7.9574442 -1.3546666 64.444443
6.4549999 7.9424291 -1.3541429 62.428574
6.5492225 7.9509997 -1.3542222 62.444447
6.647625 7.95225 -1.3542501 62.75
6.7462859 7.9475718 -1.3547143 62.285717
6.8434286 7.9600005 -1.3550001 61.285717
6.9499998 7.9417143 -1.3550001 62.14286
7.0542502 7.9488745 -1.3557501 62.625
7.1574998 7.954 -1.356375 61.875
7.2590003 7.9374003 -1.3573999 62.400002
7.343833 7.9543333 -1.3581667 62.5
7.4558334 7.9478335 -1.3595002 62.666668
7.5398002 7.9508004 -1.36 63.799999
7.6527147 7.9451427 -1.3598571 65.857147
7.7442503 7.9595003 -1.3586251 67.25
7.8616004 7.9512 -1.3576 67
7.9528751 7.9511251 -1.3570001 67.625
8.0392008 7.9645996 -1.3559999 67.800003
8.1412497 7.9373751 -1.3547499 67.25
8.2407141 7.9537144 -1.3548571 66.428574
8.3628006 7.9426003 -1.3552001 65.599998
8.4540005 7.9568753 -1.355125 66.125
8.5410004 7.9383335 -1.3543334 66
8.6572857 7.9454288 -1.3535715 64.428574
8.7407494 7.9415002 -1.35325 64.5
8.8497505 7.9344997 -1.35375 64.25
8.9473333 7.9563332 -1.3535001 63.666668
9.04 7.9375 -1.35425 62.75
9.15975 7.9512501 -1.35575 62.25
9.2488003 7.9558001 -1.3563999 62.799999
9.3583336 7.9606667 -1.3570001 63.333336
9.4533997 7.9512 -1.3576001 62.400002
9.5437508 7.954 -1.3582501 63.25
9.6569996 7.9663329 -1.3583333 64
9.7480001 7.9495001 -1.3591669 62.166668
9.8483334 7.9390001 -1.3596667 63.333336
9.951334 7.9603338 -1.3583333 64.666672
10.051144 7.9368572 -1.3582857 62.57143
10.1535 7.9558334 -1.3571666 61.833336
10.249001 7.9370003 -1.3555 60.5
10.351 7.9646664 -1.3559999 59.333336
10.45725 7.9632502 -1.3564999 58
10.530001 7.9245 -1.3575001 58
10.643001 7.9576664 -1.3583333 58.333336
10.74 7.9779997 -1.3585 58.5
-5.4116364 8.0150909 -1.3200001 212
-5.362762 8.0567646 -1.3339286 177.7619
-5.2518749 8.0558748 -1.35575 94.875
-5.1510997 8.0497999 -1.3564 87.5
-5.053 8.050334 -1.3578888 84.444443
-4.9513636 8.0511818 -1.3579999 81
-4.8531246 8.046874 -1.3581249 78.125
-4.7506666 8.048584 -1.3581666 76.75
-4.6521001 8.0478001 -1.3579999 75.400002
-4.5540004 8.0506363 -1.3577273 73.909096
-4.4467506 8.0470009 -1.3571668 74.5
-4.3539004 8.0560999 -1.3575 76.599998
-4.2493081 8.0543089 -1.3575386 79.076927
-4.1437693 8.0492306 -1.3574616 78
-4.0466666 8.0526676 -1.3566668 76.916672
-3.9538465 8.0496931 -1.3574617 74.384621
-3.8510003 8.0477695 -1.3568463 74.153847
-3.7500834 8.0489178 -1.3570836 74.5
-3.6499999 8.0536928 -1.3573848 73.92308
-3.5490003 8.0445004 -1.3579167 75
-3.4458187 8.0507278 -1.3581818 74.545456
-3.3940001 8.0235004 -1.358 68
-1.8099999 8.0760002 -1.3559999 70
-1.7685454 8.050909 -1.3567274 74.454544
-1.6190002 8.0670004 -1.3625001 70
-1.5933335 8.069334 -1.3636668 66.333336
-0.76349998 8.0602493 -1.3525 83.5
-0.41733333 8.0450001 -1.3513334 82.833336
-0.35337502 8.0457497 -1.351125 81.1875
-0.25488237 8.0489998 -1.3517058 81.529411
-0.14822221 8.0495567 -1.3526666 84.666664
-0.047555555 8.046277 -1.3537222 84.944443
0.040999997 8.0506411 -1.3535602 82.159996
0.14218749 8.0490007 -1.3542501 76.8125
0.24553335 8.048667 -1.3539335 71.26667
0.34787503 8.0474997 -1.353 70.3125
0.44806251 8.048687 -1.3521874 71.125
0.54923522 8.0512934 -1.3528825 71.117645
0.64714289 8.0506439 -1.3532141 68.857147
0.74699998 8.0476255 -1.3526875 70.75
0.85113329 8.048933 -1.3540668 76.600006
0.94824994 8.0513744 -1.3546873 83
1.048125 8.0485001 -1.3550624 83.5625
1.1524668 8.0520668 -1.3551333 83.333336
1.2506875 8.0481253 -1.3550622 82.9375
1.347 8.0455723 -1.3545001 83.285721
1.4502352 8.0477648 -1.3547057 82.352943
1.5496666 8.0500679 -1.3551333 81.666672
1.6536252 8.0516253 -1.3559372 82
1.7499287 8.0519285 -1.3559998 82.857147
1.8467498 8.0495625 -1.3564376 83.4375
1.9508749 8.0441875 -1.357125 84.3125
2.0496426 8.0499992 -1.3570716 82.64286
2.1494002 8.0525341 -1.3578666 80.866669
2.2495332 8.050334 -1.3583999 79.600006
2.3510714 8.0524998 -1.358857 79.571434
2.4479289 8.0478573 -1.3583571 79.857147
2.5492146 8.0473576 -1.3572859 79.14286
2.6483848 8.0533085 -1.357154 77.076927
2.7512307 8.0471554 -1.3576924 74.46154
2.849 8.0459156 -1.3576667 71.5
2.9448462 8.0567694 -1.3573848 68.230774
3.0443335 8.0459995 -1.3568335 65.25
3.1470001 8.0515833 -1.3576667 64.5
3.250643 8.0530005 -1.3584286 65.5
3.3509166 8.0510845 -1.3589168 66.333336
3.4524169 8.046833 -1.35825 66.083336
3.5516925 8.0504608 -1.3586155 65.92308
3.6553335 8.0499992 -1.3586668 66.583336
3.7486997 8.0545998 -1.3582 67.200005
3.8502307 8.0453844 -1.3570771 68.384621
3.9537277 8.0477276 -1.3559999 67.454544
4.0530005 8.0502224 -1.3554443 66.666664
4.1468334 8.0499172 -1.3554167 66.916672
4.2472725 8.0441828 -1.3555454 66.909096
4.3453641 8.0550003 -1.3559091 66.636368
4.4454546 8.0523634 -1.3560909 65.727272
4.5494552 8.0484543 -1.3555454 64.909096
4.6521111 8.0509996 -1.3555555 64.777779
4.7480001 8.0477772 -1.3559999 65.111115
4.8475838 8.0525007 -1.3556665 64.333336
4.9483328 8.0496655 -1.3554446 65.111115
5.0526004 8.0472994 -1.3556999 65.800003
5.1512008 8.0530996 -1.3556999 66.099998
5.2467504 8.0463753 -1.3556249 65.375
5.3446665 8.0552235 -1.3553333 65.444443
5.447 8.0459003 -1.3554 65.400002
5.5472503 8.0461245 -1.355125 65.125
5.6436672 8.056222 -1.3546667 64.444443
5.7468753 8.0566254 -1.3545001 64.75
5.8488002 8.0488005 -1.3551 65.099998
5.9544997 8.0412502 -1.3556249 65.625
6.0518751 8.0536242 -1.3555 64.75
6.1513748 8.0533752 -1.3553748 64.625
6.245111 8.0429993 -1.3546668 65.222221
6.3393745 8.0555 -1.354125 64.375
6.4539995 8.0542507 -1.3545001 63.5
6.5504999 8.0460014 -1.3541667 62.5
6.6384292 8.0550003 -1.3544286 62.000004
6.7542224 8.0474443 -1.3546666 62.777779
6.8496003 8.0486002 -1.3552001 61.799999
6.9401436 8.052001 -1.3555714 61.000004
7.0510001 8.04 -1.3556666 61.5
7.1344004 8.0579996 -1.3562 62.400002
7.2531114 8.0489998 -1.3573334 61.888889
7.3678002 8.0366011 -1.3587999 62.400002
