# .PCD v0.7 - Point Cloud Data file format
VERSION 0.7
FIELDS x y z intensity
SIZE 4 4 4 4
TYPE F F F F
COUNT 1 1 1 1
WIDTH 1197
HEIGHT 1
VIEWPOINT 0 0 0 1 0 0 0
POINTS 1197
DATA ascii
-1.3200383 5.5397687 -0.38461539 51.884617
-1.2968333 5.586 -0.39333332 51.666668
6.7176666 5.5116668 -0.396 55
9.7510004 5.5009999 -0.30399999 58
-2.1440001 5.6339998 -0.30399999 50
-2.0307333 5.6402674 -0.31189999 53.033337
-1.951 5.6403584 -0.32516977 51.584908
-1.6073999 5.6546001 -0.3028 51.400002
-1.5551665 5.642417 -0.32444444 51.972221
-1.4569999 5.6668749 -0.35437503 53.375
-1.349619 5.6353331 -0.3707619 53.380955
-1.2883334 5.6338329 -0.39450002 51.333336
7.6529999 5.6009998 -0.31099999 51
-1.9469092 5.7609091 -0.37009093 50.727276
-1.5596666 5.7209167 -0.32158333 53.416668
7.5710001 5.7855 -0.34200001 65.5
-1.9422892 5.8565011 -0.36626315 50.657894
-1.8531502 5.8778005 -0.36775002 50.100002
7.3591666 5.8773336 -0.39266667 68.5
7.4204998 5.8649998 -0.3775 60.5
7.5630002 5.803 -0.347 60
-2.0188463 5.9742303 -0.32407695 50.846157
-1.9451646 5.9607186 -0.33329406 50.694118
-1.8572618 5.9564152 -0.34367681 50.753845
-1.794125 5.9527502 -0.36649999 50.25
-2.105 6.0279999 -0.30199999 50
-2.0529566 6.0171299 -0.31000003 50.869568
-1.9603528 6.0139408 -0.32294118 50.882355
-1.8474146 6.0428534 -0.32790244 50.707314
-1.7892144 6.0458574 -0.36464283 50.785717
-1.901 6.1570001 -0.30399999 50
-1.8459189 6.1597571 -0.32618919 50
-1.7817369 6.1520529 -0.36084214 50.210526
6.0924439 6.1973329 -0.34899998 198.44444
6.1251945 6.1842599 -0.35028267 204.26088
8.184 6.1942 -0.31440002 119.4
8.2200003 6.1870003 -0.3116667 91.333336
-1.8633333 6.2346668 -0.31400001 50
5.8749237 6.2895989 -0.3522 86.400002
5.9490767 6.258112 -0.34996668 109.85556
6.0442019 6.2177577 -0.35109469 166.44595
7.976624 6.2948742 -0.34643754 119.6875
8.0469246 6.2618265 -0.33903849 128
8.1345005 6.2152696 -0.33069229 134.5
5.6585755 6.3825259 -0.35033336 106.22728
5.7473669 6.3444419 -0.35063443 87.032257
5.8260427 6.310915 -0.35023913 85.739136
7.7796674 6.3892388 -0.36361906 156.38095
7.8493185 6.35606 -0.35043943 154
7.9315639 6.314589 -0.3483333 132.92308
-1.6440001 6.4229999 -0.39700001 51
5.5976 6.4124002 -0.34459999 130.3
5.6129375 6.4371057 -0.35138291 100.23404
7.5852313 6.4906163 -0.3736923 159.53847
7.6503372 6.4626923 -0.35147694 157.07692
7.7347174 6.4195871 -0.34334782 154.41304
12.116 6.4752002 -0.33160001 55
5.6548934 6.559072 -0.3507143 79.285721
7.388 6.5926661 -0.38566667 165.5
7.4525399 6.5694757 -0.35311112 161.6508
7.5420513 6.5239654 -0.34482753 158.08621
7.6079998 6.5019999 -0.31 154
12.148912 6.5468254 -0.34791306 55.04348
-2.381 6.671 -0.308 50.5
5.690999 6.6430001 -0.3495 111.77778
5.7132225 6.6943336 -0.34888887 115.22222
7.1900001 6.697 -0.38999999 162
7.2573614 6.6742067 -0.35755169 160.31035
7.3465233 6.6300473 -0.34692073 161.28572
7.4099998 6.6065001 -0.31933337 162
12.185274 6.6236367 -0.35490909 55
12.212252 6.6790838 -0.34991667 54.916668
-2.3905001 6.7235003 -0.30299997 50
5.7350583 6.7448821 -0.35164705 108.58823
6.984334 6.7956672 -0.39066666 149.66667
7.0591588 6.7765198 -0.36234 154.28
7.1474581 6.7370863 -0.34895718 157.25714
7.2176442 6.71 -0.32435712 158.64287
12.246177 6.7511773 -0.34870595 55
6.8745866 6.8615518 -0.36175859 142.72414
6.9476871 6.8390307 -0.34725365 145.08955
7.0271907 6.8138103 -0.32409525 149.95238
12.274 6.8082495 -0.33124998 54
6.8899999 6.9039998 -0.30199999 138
-1.9601427 7.1940575 -0.35591429 53.514286
-2.0086 7.2128005 -0.33260003 50.200001
-1.9360439 7.2159858 -0.33851469 51.691177
-1.8567274 7.2572556 -0.3560183 52.027271
-1.7951667 7.2950001 -0.38433337 52.333336
-1.6162857 7.2957144 -0.38942856 50.000004
-1.5448773 7.2821579 -0.37340349 109.26316
-1.456706 7.2737069 -0.37831369 102
-1.3611001 7.2769504 -0.39164999 63.799999
-1.3 7.2930002 -0.39899999 66
-1.8345001 7.3310719 -0.32335716 51.000004
-1.7387606 7.3500986 -0.36032388 50.84507
-1.6518422 7.3286204 -0.34640002 65.41053
-1.5540365 7.3173642 -0.32698184 107.12727
-1.4461052 7.3407888 -0.34784216 59.736843
-1.349421 7.3541579 -0.38115782 51.684212
-1.2546501 7.3527994 -0.39234993 56.049999
-1.192 7.3839998 -0.40000001 62
-1.8375001 7.4206667 -0.31333333 51.333336
-1.4352499 7.4289999 -0.32775003 54
-1.3533773 7.4490576 -0.3560566 52.735851
-1.2436428 7.4418578 -0.38335714 51.57143
-1.1551905 7.4550948 -0.3923333 55.809525
-1.094 7.4970002 -0.40000001 62
6.3258338 7.4821663 -0.38849998 97.333336
-2.2083335 7.5536666 -0.32100001 50
-2.191 7.5640001 -0.33199999 50
-1.310077 7.5142307 -0.34953845 52.769234
-1.2670972 7.5543413 -0.35775611 52.07317
-1.1389 7.5427995 -0.38480002 52.100002
-1.0643125 7.5563121 -0.39325002 56.4375
6.3415003 7.5491166 -0.37126923 83.730774
6.4136667 7.5793338 -0.33500001 63.666668
-1.2224349 7.6448698 -0.36100003 52.130436
-1.1713334 7.6531668 -0.37308332 51.5
-1.041 7.6359239 -0.38876927 53.538464
-0.98624998 7.6630001 -0.396 57
6.3468852 7.6494231 -0.36946163 76.384621
6.4413085 7.6562314 -0.32430771 60.384617
6.5009999 7.6760001 -0.30500001 57
-1.204 7.7030001 -0.35699999 53
-1.1535712 7.7479787 -0.35732651 52.183674
-1.0502 7.7658 -0.3856 50.799999
-0.96153343 7.7411995 -0.39159998 54.000004
6.3572993 7.7539001 -0.37130001 70.849998
6.4468465 7.7460775 -0.32500002 57.846157
6.508667 7.7636671 -0.30533332 55
-1.1213529 7.8397646 -0.3484118 51.529411
-1.0718216 7.8573213 -0.36489284 51.57143
-0.94137502 7.838625 -0.38937503 52
-0.88999999 7.8474998 -0.39950001 55
6.3698463 7.8462315 -0.37715384 66.538467
6.4469166 7.8490005 -0.33366668 55.666668
6.5306664 7.8703337 -0.30666667 53
-2.1681666 7.9580002 -0.32433337 50
-1.1045001 7.9125004 -0.33700001 53.5
-1.0440276 7.9432778 -0.35441664 52.111111
-0.95914292 7.9412861 -0.38428572 51.857143
-0.88300008 7.9196672 -0.39566669 52.666668
6.3846664 7.9346666 -0.38816667 63.166668
6.4356666 7.9535837 -0.3556667 56.25
6.5180006 7.9458332 -0.31933334 52.666668
-2.1494169 8.0613346 -0.31166667 50
-2.0779998 8.079401 -0.31979999 50
-1.9490001 8.0803337 -0.39733332 52.333336
-1.631 8.0900002 -0.35299999 50
-1.5753335 8.0627785 -0.35800001 50.777779
-1.0285001 8.0215006 -0.342875 52.25
-0.98100007 8.0209999 -0.38225001 51.25
-0.86866677 8.0513344 -0.3915 53.166668
6.4406667 8.0431108 -0.37622219 55.444447
6.5149999 8.0129995 -0.33000001 52
-2.227 8.1079998 -0.30500001 50
-2.132143 8.1257143 -0.30500001 50.000004
-2.0528126 8.1471882 -0.32956249 50.1875
-1.9876666 8.1358328 -0.38316667 50.666668
-1.707 8.1969995 -0.317 52
-1.5448334 8.1341667 -0.35600001 51.583336
-1.48475 8.1819992 -0.3585 50.5
-1.009125 8.1531248 -0.34962499 52.125
-0.98033333 8.1814451 -0.37266666 51.111111
-0.85350001 8.1440001 -0.39625001 51
6.4520001 8.1219997 -0.39500001 53
-2.4360001 8.2445002 -0.32000002 50.000004
-2.3755002 8.2556248 -0.356875 50
-2.04 8.2304993 -0.3355 50
-1.73 8.2550001 -0.30700001 51
-1.4547499 8.2522497 -0.35500002 50.5
-1.352875 8.2654991 -0.35925001 50.5
-0.95429409 8.2467346 -0.37400007 51.735294
-2.0409999 8.3690004 -0.31099999 50
-1.3283334 8.3196678 -0.36833334 51
-1.2915001 8.3689995 -0.35949999 50.5
-1.007 8.3620005 -0.34200001 50
-0.91250002 8.3285007 -0.37799999 52.5
-1.284 8.4230003 -0.35299999 50
-1.046 8.4600773 -0.33084613 51.307693
-0.93299997 8.4619999 -0.3725 53
-2.4449999 8.5200005 -0.345 50
-1.687 8.5319996 -0.36899999 50
-1.2160001 8.5933342 -0.31733331 52
-1.1520286 8.569972 -0.32377139 52.142857
-1.0504348 8.5430012 -0.31886959 57.913044
-0.97027272 8.5424547 -0.35409093 57.272728
7.0723333 8.5443344 -0.31200001 52.666668
-1.704 8.6730003 -0.366 50
-1.2225001 8.6145 -0.35183334 51.5
-1.1448001 8.6308012 -0.34980002 51.799999
0.35574332 8.6818371 -0.35071623 224.08109
0.44685361 8.6436939 -0.35026824 201.04877
0.51200008 8.6453714 -0.35237041 139.03703
6.9496665 8.6366673 -0.37100002 52.666668
-1.7284999 8.7414999 -0.33900002 50
0.086999997 8.7957268 -0.34209093 230.36365
0.14944451 8.7693119 -0.35075557 232.63335
0.25326511 8.7249269 -0.3504096 231.28915
0.30700001 8.7021112 -0.35300002 228.88889
0.55650008 8.7475834 -0.34925002 120.52778
-2.1256955 8.8555222 -0.36026084 52.956524
-1.7237002 8.857501 -0.33039999 50
-1.6763334 8.8472786 -0.36438885 50.666668
-0.026244445 8.8452673 -0.35091108 213.82222
0.036340207 8.8180399 -0.3513093 228.94844
0.58899999 8.8249998 -0.34666666 120.22222
0.60949999 8.8723888 -0.35527778 120.61111
-2.15025 8.9272499 -0.33274996 52.25
-1.711125 8.9561253 -0.31687498 50
-1.6583847 8.9495392 -0.35969234 50
-1.5220001 8.9797497 -0.37300003 50
-1.4547144 8.9398575 -0.37757143 50.285717
0.63611108 8.935998 -0.35266668 117.22222
-2.2091999 9.04 -0.3644 50
-2.1954999 9.0404997 -0.35650003 50
-1.705 9.0389996 -0.32050002 50.5
-1.6531764 9.0587072 -0.34405878 50.205883
-1.5753638 9.0417271 -0.36781821 50
7.5705004 9.0885 -0.30449998 52
7.46275 9.1682491 -0.36074999 53.5
7.5153332 9.1500006 -0.33733338 54.666668
-1.3559999 9.2880011 -0.31133336 50.666668
-1.023 9.2810001 -0.396 63
-1.3383334 9.3050003 -0.315 52
-1.6412441 9.6730986 -0.34434149 50.829266
-1.5695834 9.6556683 -0.3754167 50.791668
8.0310001 9.6851425 -0.31671429 54.285717
-1.73628 9.7501593 -0.33891997 50.719997
-1.6572858 9.7270002 -0.33650002 50.785717
-1.5570002 9.7512941 -0.35911763 50.588234
0.71200007 9.7413349 -0.38 117.66667
7.8659592 9.7744589 -0.36141667 55.958336
7.9413004 9.7356997 -0.33246675 56.466671
8.0105 9.7030001 -0.31199998 55.5
-1.608 9.8439999 -0.3035 50.5
-1.5551111 9.8254442 -0.35233334 50.444447
7.7989998 9.8950005 -0.39399999 56
7.8375802 9.8429346 -0.35051611 54.064514
7.796 9.9160004 -0.39700001 54
7.8414741 9.9522638 -0.34821054 53.789474
7.8509521 10.044095 -0.34614286 54.428574
-1.4914999 10.172501 -0.39300001 50
7.8630719 10.148857 -0.35885718 55.07143
7.9086666 10.164001 -0.30766666 52.333336
8.5149994 10.17 -0.31 53
-1.526 10.275 -0.359 50
7.8779998 10.243834 -0.37833333 55.333336
7.9152856 10.256286 -0.32742858 55.428574
-1.517 10.3 -0.36399999 50
7.8944998 10.318501 -0.38949999 55.5
7.9375834 10.346251 -0.33950001 55.333336
7.9511108 10.436666 -0.36544442 58.222221
8.0380001 10.493 -0.30399999 51
-1.66625 10.5765 -0.3725 50
7.9835 10.517 -0.37150002 57.5
8.0240002 10.556667 -0.35166669 56.333336
-1.7232001 10.64 -0.3204 50
-1.6746668 10.644001 -0.36183333 50
8.0472498 10.64325 -0.37674999 56.75
8.9869995 10.678499 -0.30849999 53.5
-1.7275 10.744249 -0.31650001 50
-1.6728001 10.7576 -0.36320001 50
8.9759998 10.706 -0.315 55
-1.72675 10.8495 -0.31625 50
-1.6622499 10.86075 -0.3705 50
-1.7249999 10.94825 -0.31625 50
-1.6653333 10.941833 -0.36266667 50
-1.706 11.007 -0.33000001 50
-1.6725 11.021 -0.35249999 50
8.3606071 11.778502 -0.35049999 116.67857
8.4548788 11.738029 -0.34966668 172.0303
8.5139999 11.713 -0.35299999 208
8.0889997 11.8966 -0.35299999 89.800003
8.1475153 11.871092 -0.35093939 87.78788
8.2498474 11.826575 -0.35118186 88.909096
8.3091679 11.801167 -0.3506667 96
7.9804993 11.945999 -0.35141668 129.58334
8.0392504 11.918821 -0.34864286 101.14286
7.9945998 12.016001 -0.3488 64.400002
8.0365 12.111834 -0.34666666 72.166672
8.0805712 12.216429 -0.34542859 88.428574
8.1070004 12.28475 -0.35699999 84.75
1.0578667 12.691134 -0.35560003 255.00002
1.1420305 12.687153 -0.35475758 139.81819
1.201 12.696 -0.39500001 57
0.96855986 12.71208 -0.35163996 253.84
1.015 12.70275 -0.33024999 255
1.1722499 12.726251 -0.32875001 114.25
1.2493032 12.761333 -0.34863636 65
1.3221765 12.782177 -0.35100001 59.64706
1.261 12.807667 -0.37200004 179
1.3716429 12.866642 -0.35107145 58.500004
1.386 12.914 -0.38100001 54
1.4487877 12.93606 -0.34721211 76.57576
1.511 12.996 -0.39700001 66
-0.11200001 13.094858 -0.37128574 113.00001
-0.08866667 13.089168 -0.34816667 108.5
1.4305 13.0235 -0.38749999 82.5
1.5158001 13.040801 -0.34839997 59.400002
-0.33649999 13.184607 -0.35810712 103.39286
-0.24413159 13.149683 -0.34934217 106.28947
-0.15356669 13.114834 -0.34503335 109.23334
1.5619999 13.149945 -0.35088891 87
-0.61366665 13.293999 -0.3635 111.66667
-0.5485 13.270056 -0.35075003 94.777779
-0.44705555 13.229946 -0.34930563 97.861115
-0.37962502 13.204874 -0.33762497 100.125
1.6118335 13.259666 -0.36050004 149.5
-0.83954996 13.3921 -0.36039999 121.7
-0.75485724 13.3578 -0.34974286 78.657143
-0.65813339 13.3132 -0.34643334 98.566673
1.6465 13.341999 -0.36174998 118.25
-1.1109999 13.495501 -0.38950002 88.5
-1.0450001 13.474937 -0.35350001 87.0625
-0.9448058 13.43372 -0.34702781 88.888893
-0.87433332 13.406778 -0.33166665 85.888893
1.6799999 13.4232 -0.36500001 141.8
1.704 13.478001 -0.38033336 201.33334
-1.3206365 13.590729 -0.3658182 82.545456
-1.2487813 13.563874 -0.34887499 82.25
-1.1537665 13.521902 -0.35140005 84.800003
-1.0945001 13.502501 -0.32450002 83
1.7294286 13.560716 -0.36685714 146
-1.5311877 13.684437 -0.364375 77.8125
-1.4530333 13.6547 -0.35099998 78.800003
-1.3672084 13.619085 -0.3417083 79.333336
1.7660002 13.672144 -0.36057144 67.714287
-3.9950004 13.750334 -0.37433338 51
-1.7387729 13.776635 -0.35181817 77.772728
-1.6519377 13.74575 -0.34828126 86.75
-1.5703751 13.712687 -0.34162498 76
1.7842001 13.7226 -0.33140001 60.799999
1.813 13.781 -0.39399999 59
-3.9204288 13.833001 -0.33942857 51.000004
-3.898 13.849 -0.31299999 51
-1.8257779 13.826555 -0.32233334 75.444443
-1.7786001 13.806801 -0.32520002 76.800003
1.763 13.804 -0.31900001 51
1.693 13.953 -0.32100001 53
1.7486668 13.970835 -0.31283337 52.5
1.7423333 14.016334 -0.33099997 52.333336
2.8543932 14.179785 -0.35032147 237.28572
2.9137273 14.153637 -0.35118183 195.54546
2.599 14.2985 -0.32800001 247
2.6514072 14.274742 -0.35144448 232.33333
2.7434378 14.231001 -0.35115623 241.59375
2.8039999 14.2024 -0.34600002 247
2.971 14.2474 -0.35050002 126.7
2.3929999 14.393801 -0.3486 171
2.4533532 14.366911 -0.3519412 196.02942
2.5516427 14.321392 -0.35225001 203.03572
2.5999999 14.3 -0.39199999 120
3.0239999 14.365401 -0.34619999 129.8
2.1759999 14.49325 -0.35175002 222.75
2.246875 14.461501 -0.3495 224.84375
2.3410003 14.417355 -0.34960717 178.60715
3.0599999 14.446001 -0.35366666 133.33334
10.959143 14.474788 -0.36135715 75.64286
11.027501 14.438215 -0.3392143 83.357147
1.9662106 14.58021 -0.35710526 175.94737
2.0543032 14.547637 -0.35106063 219.51515
2.1323333 14.512869 -0.35173336 226.40001
3.0961666 14.527167 -0.35166669 138
10.8586 14.546298 -0.37719998 69.200005
10.9215 14.5105 -0.35174999 64.25
1.9332221 14.602223 -0.34244448 180.55556
10.773666 14.627001 -0.39433333 66
-3.8379998 15.13825 -0.38850001 51.5
11.253 15.198 -0.38 56
11.2425 15.243 -0.38600001 55.5
11.245501 15.3285 -0.39499998 56
11.576 15.35 -0.324 50
3.362 15.6778 -0.34819999 100.8
3.4032001 15.773 -0.34600002 101.4
-4.0110002 15.839 -0.38999999 51
3.4450002 15.871001 -0.34580001 102.2
3.4888 15.973401 -0.3418 109
11.684 15.989 -0.396 58
11.755143 15.953571 -0.37314287 56.714287
11.848001 15.950999 -0.35279998 55
11.942 15.945833 -0.33533335 52.666668
12.042 15.925667 -0.30666667 53
3.5332501 16.0805 -0.352 116
3.5774999 16.185999 -0.3495 117.75
3.6234002 16.296001 -0.35800001 124.2
3.668 16.397335 -0.33199999 112.33334
3.6684999 16.401501 -0.38550001 133
12.34 16.491669 -0.31433332 61
3.7146001 16.5098 -0.35279998 116.4
12.0905 16.589001 -0.35149997 149.5
12.145462 16.566538 -0.34207699 140.76924
12.245715 16.526287 -0.32242858 109.28572
3.7593999 16.612 -0.34980002 106
3.8058 16.718 -0.34780002 111.4
3.8510003 16.8202 -0.34419999 100
3.8985 16.929501 -0.32999998 101.5
3.9005001 16.937 -0.37400001 121
11.0955 16.999001 -0.38550001 247
11.144918 16.981167 -0.34999999 248
3.9475 17.043751 -0.35225001 117.25
10.868917 17.082251 -0.36141667 247.91667
10.955562 17.049438 -0.34768751 239.3125
11.053431 17.014502 -0.34550002 239.57144
3.997 17.158001 -0.34999999 96.75
10.589 17.1975 -0.34275001 252.75
10.647687 17.172125 -0.35062501 244.125
10.743376 17.133625 -0.35412499 246.25
10.813715 17.105858 -0.33785716 248.28572
4.0479999 17.279249 -0.34975001 98.5
10.373455 17.287365 -0.35181817 224.18182
10.452751 17.254686 -0.34724998 248.8125
10.541333 17.217419 -0.35233331 253.66667
4.0987501 17.397751 -0.3475 96.75
10.268374 17.329498 -0.35049999 208.5
10.316 17.310125 -0.35387501 233.125
10.27225 17.410749 -0.345 108.25
4.1507502 17.52 -0.34600002 96.75
10.169625 17.562874 -0.35749999 130.75
10.251105 17.525368 -0.34947369 134.21053
4.2020001 17.638 -0.35460001 105
10.156751 17.617498 -0.34200001 59.25
4.2550006 17.7612 -0.35280004 96.200005
10.231 17.798 -0.38800001 61
4.3082004 17.884399 -0.34900001 95.200005
10.238334 17.810333 -0.33700001 63
4.3621998 18.008001 -0.34720001 94.400002
4.41675 18.134499 -0.3545 94.5
4.4715004 18.258749 -0.35374999 94.75
4.5295 18.395248 -0.35025001 93
4.5879998 18.533501 -0.347 90.75
4.6479998 18.6745 -0.34600002 92.25
4.7090001 18.818251 -0.34400001 93.5
4.7702498 18.963001 -0.34425002 90
4.8319998 19.105999 -0.33950001 90
4.8937502 19.24925 -0.33949998 90
4.9554996 19.38875 -0.36124998 93.75
11.120334 19.401333 -0.345 114.66667
5.0167503 19.526249 -0.36000001 99.75
5.0757504 19.654501 -0.354 103.75
5.1830001 19.693001 -0.36116666 239
5.232111 19.68022 -0.35311115 197.66667
5.1377997 19.7097 -0.34100002 238.60001
5.2733335 19.701668 -0.33033335 78.666672
5.3412499 19.854252 -0.34399998 88.25
11.369001 19.893333 -0.35800001 92
5.4099998 20.00975 -0.33949998 89.5
5.4790001 20.166668 -0.35100001 83.666672
11.48625 20.157249 -0.35524997 86.75
11.599 20.414 -0.377 95
11.6005 20.417 -0.333 90.5
11.699 20.650999 -0.38800001 95
11.702 20.655499 -0.34299999 89.5
11.815499 20.917749 -0.352 90.5
11.936 21.193335 -0.34866667 90.666672
12.059668 21.475668 -0.36000001 97
12.1925 21.775499 -0.35549998 100.5
12.309334 22.050667 -0.35266671 97
12.425334 22.324333 -0.36166668 88.333336
12.565001 22.641668 -0.34400004 99
12.697333 22.948334 -0.35466668 95.333336
12.820666 23.239668 -0.36633334 88
12.978667 23.596668 -0.34299999 84.333336
12.931499 23.686501 -0.3265 68.5
12.902 23.739 -0.333 68
13.037 23.773001 -0.31999999 70
12.897 23.801001 -0.308 69
12.947001 23.857 -0.35549998 67.5
13.058 23.882 -0.36000001 66
13.106 23.898001 -0.35600001 95
13.042 23.947998 -0.38033336 68
13.12 23.924 -0.391 113
12.974 24.014999 -0.33749998 114.5
10.664001 24.573334 -0.33066666 75
10.712667 24.572332 -0.34400004 101
11.064001 24.587002 -0.36083335 92
11.144375 24.555624 -0.35737503 104.75
11.246201 24.540001 -0.3628 69.400002
11.341667 24.542 -0.38600001 61
10.677999 24.619999 -0.3725 68.5
10.775667 24.632 -0.33733332 56
10.853 24.664431 -0.36571434 56.714287
10.9486 24.647001 -0.34459999 61.400002
11.028999 24.619751 -0.32725 85.75
10.56525 24.7855 -0.37825 68.75
10.651572 24.747715 -0.37357146 61.000004
10.37325 24.875252 -0.37524998 82
10.453 24.84943 -0.36114284 68.714287
10.539 24.810501 -0.35100001 59.5
10.156572 24.981144 -0.36385715 90.714287
10.248667 24.950556 -0.34299999 73
10.331835 24.914999 -0.34 66.166672
9.9566669 25.072554 -0.36488888 100
10.0559 25.0348 -0.34810001 92.5
10.1425 25.004999 -0.32449999 66
9.6890001 25.195 -0.391 138
9.7593756 25.177624 -0.34862497 103.125
9.8463335 25.131445 -0.3552222 103.55556
9.9120007 25.113501 -0.324 78.5
9.5518341 25.279835 -0.36450002 124.16667
9.6444006 25.239899 -0.34240001 101.4
9.7299995 25.207001 -0.317 83
13.619 25.285 -0.38100001 52
7.7639999 25.392002 -0.33833337 198.33334
9.3862495 25.379 -0.36399999 97.75
9.4542217 25.342556 -0.34522223 104.33334
9.5246677 25.304333 -0.33900005 106.33334
13.634 25.389 -0.38999999 54
7.5656672 25.486502 -0.34950003 246.83334
7.6421113 25.450998 -0.35299999 250
7.7179995 25.413334 -0.34716666 233
9.1820002 25.489 -0.37200001 125
9.2446671 25.463221 -0.352 127.11111
9.3339996 25.422249 -0.33900002 110
13.642 25.403999 -0.354 56
7.3674445 25.583553 -0.3522222 221.66667
7.4593329 25.539557 -0.34333333 230.44444
7.52 25.509001 -0.36300001 238.66667
7.8483334 25.554001 -0.33633336 86
9.0537148 25.579428 -0.35828573 118.14286
9.1424007 25.531 -0.34370002 108.5
10.665 25.597 -0.31 52
10.738501 25.546001 -0.3285 53.5
7.2601662 25.634666 -0.35100004 193.83334
7.3063335 25.613003 -0.34033334 221.33334
8.8776674 25.687332 -0.37166667 121.66667
8.9493332 25.650333 -0.34477779 113.33334
9.0203333 25.612 -0.32633334 104
8.7790003 25.785 -0.35500002 69
8.8365555 25.73089 -0.35111111 110.33334
8.7484283 25.832859 -0.34300002 72.285721
8.6990004 25.976999 -0.36899999 59
8.7196674 25.932333 -0.36300001 60
14.079 28.141001 -0.37400001 54
14.1185 28.130501 -0.34750003 53
14.32 28.177 -0.37799999 61
14.292999 28.2115 -0.34999999 55
15.061501 28.3885 -0.37199998 76.5
14.983001 28.674335 -0.34733337 106
15.050001 28.639145 -0.34885713 129.14287
15.146335 28.635 -0.35933337 103.33334
9.4720001 28.764999 -0.38133335 72
9.5580006 28.742834 -0.35533333 66.166672
9.3520002 28.827999 -0.39399999 74
9.4069996 28.812 -0.38100001 72
9.4250002 29.624001 -0.40000001 73
15.489 29.917 -0.39199999 64
9.7754993 30.2635 -0.37949997 83.5
9.8310003 30.24 -0.37099999 84
9.5410004 30.382 -0.39399999 82
15.812 30.447001 -0.301 58
15.732 30.5755 -0.35049999 69.5
15.834499 30.536499 -0.35100001 56
15.808 30.816999 -0.34599999 53
9.9630003 30.976 -0.33399999 153.25
10.04775 30.939999 -0.32824999 127.75
10.132 30.902 -0.32300001 78
9.6789999 31.096001 -0.34200001 229.66667
9.7550001 31.063999 -0.34450001 179
9.8457994 31.025602 -0.3488 155.2
9.9060001 31 -0.3495 148
9.6273994 31.122602 -0.3466 193.60001
17.252251 33.789753 -0.34625 68.75
17.198 33.84 -0.31 58
16.952667 33.918335 -0.32633334 119.33334
12.105 36.605999 -0.315 157
12.374 37.263 -0.35299999 81
19.418667 39.387337 -0.34200001 255
19.525749 39.334503 -0.36149999 166
19.198999 39.481998 -0.32999998 255
19.25 39.462002 -0.3725 255
19.326 39.428253 -0.354 255
18.980335 39.580334 -0.36166668 255
19.073 39.538502 -0.35574999 255
19.148001 39.505001 -0.33849999 255
18.891001 39.605999 -0.33849999 142.5
19.107 40.188 -0.354 255
18.928001 40.268501 -0.34349999 247.5
19.038666 40.218334 -0.36133334 246.33334
18.671001 40.37875 -0.34450001 241.25
18.773499 40.334999 -0.377 246.5
18.834 40.309002 -0.35466668 249
18.388 40.499001 -0.37799999 173
18.457668 40.472 -0.34266669 230.66667
18.568249 40.423248 -0.36199999 229.75
18.179001 40.580002 -0.31299999 119
18.261 40.557503 -0.324 180.5
18.354332 40.516003 -0.34866667 205
16.848 61.094002 -0.37900001 206
16.9575 61.041496 -0.347 205
17.091999 61.080002 -0.32499999 69
16.737999 61.145 -0.32499999 208.5
6.8807926 -5.7545214 -0.24764585 57.875
6.9063501 -5.7165999 -0.24494998 56.450001
6.9340925 -5.6528029 -0.24798682 55.894737
6.9552002 -5.5789504 -0.25385001 53.5
3.7548187 -5.4103637 -0.21427272 137.45454
3.8110001 -5.4330001 -0.20200001 76
6.9775553 -5.4202218 -0.22522222 60.555557
3.5467372 -5.3213673 -0.25018394 159.36781
3.6430933 -5.3622904 -0.24090792 154.8421
3.7187505 -5.3935003 -0.22449999 140.08334
3.8826249 -5.3255 -0.29087502 50
3.9437203 -5.3294792 -0.24559999 50
6.2913642 -5.3112726 -0.24709089 51.909092
6.3030005 -5.3113999 -0.2264 53
6.9948997 -5.3909998 -0.23240001 60.799999
7.0098958 -5.3484874 -0.25623077 60
3.2878454 -5.2051926 -0.25019231 168.96155
3.3526514 -5.2348924 -0.25080585 167.95146
3.4522645 -5.279356 -0.25051725 168.14943
3.7593334 -5.232667 -0.29433334 50
3.8680911 -5.2432723 -0.27963638 50
3.9267776 -5.255074 -0.23107405 50
6.3627057 -5.2468233 -0.27988231 52.64706
-1.0030001 -5.1009998 -0.25525001 134.125
-0.95284915 -5.1194491 -0.25055876 120.30883
-0.89742863 -5.1402855 -0.26057142 83.714287
3.0783212 -5.1126981 -0.25047168 174.92453
3.1500669 -5.1432114 -0.25018269 171.46155
3.236743 -5.1818585 -0.25042307 166.55128
3.6646664 -5.1486664 -0.28955555 50
3.714 -5.1900001 -0.29100001 50
3.8722694 -5.1475391 -0.26825398 50.412701
3.9178684 -5.1463156 -0.21910524 50.394737
6.3973331 -5.1389999 -0.26333332 52.666668
6.4017997 -5.1568003 -0.27019998 52.200001
-1.2198392 -5.0077176 -0.25646919 130.45679
-1.1395463 -5.0372481 -0.24946339 120.32683
-1.0502139 -5.0743527 -0.25033757 121.38035
-0.96300006 -5.0877895 -0.2286316 85.473686
2.8608935 -5.0179238 -0.25092241 181.46602
2.9492958 -5.0568662 -0.25147745 180.21622
3.0252101 -5.0898046 -0.25011942 177.68657
3.8765268 -5.0567088 -0.27429089 51
3.9196188 -5.0572619 -0.22409524 51
6.3940001 -5.0009999 -0.20200001 57
7.1803856 -5.0180001 -0.21992308 142.61539
7.2270002 -5.0079999 -0.22400001 52
-1.4340245 -4.9127049 -0.24803361 129.84035
-1.3503685 -4.9425597 -0.25079826 123
-1.2650775 -4.9797697 -0.24673213 120.125
-1.1727501 -4.9935002 -0.25237501 82.25
2.5982854 -4.9030714 -0.2525 175.50002
2.6504409 -4.9263716 -0.25050402 175.91339
2.7462976 -4.9682646 -0.2501719 180.32031
2.8083332 -4.9952335 -0.24663338 179.16667
3.8715706 -4.9409871 -0.26137504 51
3.9088571 -4.9425721 -0.21452384 51
5.2735553 -4.9152222 -0.21877776 50
6.393364 -4.9819093 -0.24900001 56.18182
6.4272246 -4.9561 -0.25717506 56.125
7.1960001 -4.9892001 -0.20939998 96.800003
7.2297587 -4.9307203 -0.22051999 104.16
-1.6453829 -4.8211665 -0.24853085 130.55925
-1.5527964 -4.8587627 -0.24838573 118.81905
-1.4728451 -4.8902707 -0.24742727 117.39091
-1.3868334 -4.8936663 -0.25916666 88.833336
2.3863063 -4.8088388 -0.2531836 180.93877
2.4514625 -4.8376803 -0.25036553 181.71034
2.5465629 -4.8796692 -0.25009224 178.06154
3.8793335 -4.8951664 -0.25716668 51
3.9246817 -4.8270912 -0.21768183 51.863636
5.2521434 -4.8905716 -0.24285714 50.000004
6.42908 -4.8475199 -0.24976005 52.199997
7.244 -4.8990002 -0.233 61
-1.9078574 -4.7047501 -0.23557144 127.35715
-1.8417176 -4.7325196 -0.25021845 123.83495
-1.7497998 -4.771831 -0.25023735 132.28015
-1.678581 -4.7918611 -0.25044185 108.18604
2.1732786 -4.7129898 -0.25062221 191.54445
2.2482321 -4.745986 -0.25127682 192.51572
2.3334653 -4.7845683 -0.24947366 189.51755
3.484 -4.7667499 -0.241 50
3.5170002 -4.7803335 -0.21133333 50
3.8915002 -4.7288332 -0.28644446 51
3.9270828 -4.7407413 -0.23570588 51.023529
6.451416 -4.7709579 -0.25816664 53.958336
6.5531325 -4.7299337 -0.24482223 54.600002
6.7827506 -4.7095003 -0.27325001 50
6.8146324 -4.7161579 -0.24273685 50.052631
-2.12201 -4.6104803 -0.24697056 125.95098
-2.0489557 -4.6381187 -0.24920887 123.41766
-1.9557984 -4.6777287 -0.25142732 122.94445
-1.8740001 -4.6866245 -0.25712499 87.875
1.9620988 -4.6177564 -0.25092953 197.5845
2.048583 -4.6576352 -0.25036633 195.63954
2.1220934 -4.6905336 -0.24866273 193.2093
3.2014999 -4.6075001 -0.204 51
3.8964167 -4.65275 -0.29416668 51
3.9323335 -4.6461535 -0.2415766 51.063065
6.4855838 -4.6150002 -0.24108335 52.916668
6.5221181 -4.6455879 -0.24844119 52.970589
6.7891665 -4.6550555 -0.28750005 50.166668
6.8248777 -4.6542683 -0.25829268 50.731705
7.3537216 -4.6144452 -0.23822223 189.11111
-2.3370323 -4.5157723 -0.25269872 134.6282
-2.2534204 -4.551456 -0.25496429 122.58929
-2.1650286 -4.5850935 -0.25380573 118.26619
-2.09025 -4.5852499 -0.22525001 86.5
1.7516378 -4.5226059 -0.25144821 203.44827
1.8492961 -4.5663624 -0.25082383 202.62175
1.9113189 -4.5941916 -0.2495532 201.51064
3.0875716 -4.5057144 -0.29228574 51.000004
3.152364 -4.5266137 -0.25902268 50.93182
3.2463212 -4.5553575 -0.22600001 50.678574
3.3077502 -4.5802498 -0.20925 50
3.8933334 -4.5824442 -0.2923333 51
3.9587071 -4.5552211 -0.25274861 51.365273
4.0015001 -4.5124998 -0.204 52
6.4905005 -4.5931673 -0.27516663 53.333336
6.5185304 -4.5902357 -0.26658827 54.705883
6.7810006 -4.5721431 -0.26228574 53.14286
6.8167086 -4.5511117 -0.24677783 55.944447
7.3753815 -4.5481634 -0.25013044 255
-2.5513716 -4.4198346 -0.25295234 125.91429
-2.4519069 -4.4606833 -0.25141925 130.69615
-2.3770001 -4.4872913 -0.24403228 116.44086
-2.2936668 -4.4980001 -0.24966666 94.666672
1.4919788 -4.4048481 -0.25415215 205.69566
1.54992 -4.4307685 -0.25075573 204.5611
1.647519 -4.475131 -0.25066209 202.68518
1.7019999 -4.4996667 -0.23033333 204.66667
3.108 -4.4910002 -0.296 50
3.978039 -4.4561281 -0.26767322 51.10891
4.0145154 -4.4385738 -0.223 51.676472
4.5956669 -4.4675007 -0.2791667 52
4.6600842 -4.4471264 -0.26032391 50.549294
4.7199998 -4.4520321 -0.22103223 50.064514
6.8447599 -4.4623036 -0.2473152 54.108696
6.9587746 -4.4367747 -0.25708067 63
7.0119996 -4.4404001 -0.26750001 87.5
7.3982224 -4.4920001 -0.25277779 255
7.4202209 -4.4415712 -0.24930491 254.99998
-2.8181527 -4.3074164 -0.25993055 124.34722
-2.747519 -4.3333735 -0.25068048 114.41495
-2.65747 -4.3712306 -0.24734347 118.92929
-2.5722499 -4.3918338 -0.2225 98.833336
1.2773925 -4.3105979 -0.25066355 218.50467
1.3491265 -4.3418264 -0.2506628 216.25287
1.4418626 -4.3823686 -0.24942853 208.16837
3.395 -4.3010001 -0.29300001 52
3.9898002 -4.3826666 -0.289 51.000004
4.0302324 -4.3501177 -0.24654783 51.226028
4.6734447 -4.3911114 -0.287 50
6.965167 -4.392334 -0.23216668 51.5
7.4619665 -4.3463993 -0.25019357 255
-3.0309098 -4.2114134 -0.24850406 126.61156
-2.9427257 -4.2490993 -0.25618315 127.28873
-2.8668535 -4.280757 -0.24693909 120.68902
-2.7755456 -4.2920003 -0.23699999 82
1.0650507 -4.215446 -0.25169066 222.62886
1.1479172 -4.2530742 -0.25012591 220.54074
1.2267346 -4.2883296 -0.25002533 219.03165
3.3954999 -4.2965002 -0.29699999 52
3.4467275 -4.2729092 -0.2614381 54.462807
3.9749999 -4.2360001 -0.289 51
4.0576816 -4.2595315 -0.24968748 51.03125
4.1033335 -4.2106667 -0.20433334 51
7.4924855 -4.2766762 -0.24970269 255
7.5142517 -4.2265096 -0.25074545 254.99998
-3.2419367 -4.1190352 -0.25218135 117.43407
-3.1510205 -4.1581898 -0.24951038 117.94142
-3.0715775 -4.1895523 -0.24957016 115.67544
-2.9925001 -4.1949997 -0.27700001 82
-1.221143 -4.1418571 -0.26914287 82.571434
-1.1886667 -4.1386666 -0.24233334 79.444443
0.8521437 -4.1209164 -0.25084716 230.897
0.94837564 -4.1629634 -0.25090608 227.69798
1.0146965 -4.1925855 -0.24815154 226.04041
3.951 -4.1999998 -0.296 51
4.0589743 -4.1537037 -0.26371184 50.745762
4.1241689 -4.1422257 -0.21936621 50.830986
7.5487366 -4.146946 -0.25045648 255
-3.402143 -4.0481901 -0.25852382 98.619049
-3.352551 -4.0662427 -0.25201806 103.66969
-3.2808568 -4.0934768 -0.23411906 100.95238
0.58950013 -4.0053105 -0.25047433 233.44872
0.65051538 -4.0321112 -0.25042903 234.75285
0.74990535 -4.0760741 -0.25034261 232.7963
0.80199999 -4.0991049 -0.24942107 232.3158
4.0694547 -4.0560784 -0.27980521 50
4.1423793 -4.0511556 -0.22952229 50.277779
7.5861378 -4.061954 -0.2511692 255
7.6080379 -4.0129633 -0.24992596 255
-3.3666415 -3.9501638 -0.2584776 89.134323
-1.483 -3.984 -0.227 73
-0.676 -3.902 -0.242 71
0.37443924 -3.9107249 -0.24913231 242.46031
0.44759852 -3.942652 -0.25118327 238.42587
0.53762174 -3.9824059 -0.25055403 233.82433
2.5904999 -3.9035001 -0.2735 51
2.6546087 -3.9228258 -0.24336956 51.652176
2.7226501 -3.9290497 -0.2112 51.75
4.0557275 -3.9824545 -0.29218182 50
4.1574588 -3.9873753 -0.24975005 51
7.6361275 -3.9483356 -0.24997851 254.94624
-3.3259714 -3.8502359 -0.24963887 94.263893
-1.7804999 -3.82025 -0.23300001 71.25
-1.688 -3.8940001 -0.235 70
-0.65765905 -3.8476481 -0.2472955 99.056824
0.15744454 -3.8180525 -0.2503106 246.61539
0.2493723 -3.8573799 -0.2505523 244.67397
0.32481173 -3.8894176 -0.25065348 242.10396
2.5803752 -3.8881249 -0.28137499 51.625
2.6115 -3.8961666 -0.26350003 51.5
4.0970001 -3.8499999 -0.29699999 50
4.1182499 -3.8747501 -0.28675002 50.25
5.4781675 -3.8216667 -0.23699999 53.666668
5.5208883 -3.8373332 -0.25366667 54.666668
7.6784005 -3.8492286 -0.25015217 255
-3.3031249 -3.7882502 -0.26337498 90.375
-3.2860727 -3.7462761 -0.24847829 98.913048
-1.949 -3.7709999 -0.29499999 82
-1.899 -3.7780001 -0.20900001 83
-0.61696118 -3.7479866 -0.24451947 99.584419
-0.59972727 -3.7099998 -0.26045457 105.27273
-0.10744682 -3.7029152 -0.25314891 253.68085
-0.049677763 -3.7284384 -0.25046003 251.73512
0.05120904 -3.7721324 -0.25078174 250.21362
0.10900006 -3.7970791 -0.25057143 249.15874
5.4296675 -3.786 -0.25299999 52.333336
7.7206368 -3.7499666 -0.25081718 255
-3.2474716 -3.6505086 -0.25086001 97.549995
-0.602 -3.6960001 -0.23100001 79
-0.5916667 -3.6819339 -0.25786668 87.26667
-0.31848606 -3.6085238 -0.25065538 253.62148
-0.25185293 -3.6384068 -0.25050622 253.7386
-0.15750946 -3.6806524 -0.25021374 253.05634
7.7644062 -3.6504412 -0.25036564 255
-3.2173812 -3.5774279 -0.24588095 94.690475
-3.2 -3.5420001 -0.23800001 84
-2.6159999 -3.586 -0.29300001 91
-2.5845001 -3.5369999 -0.29250002 74
-2.4060001 -3.573 -0.2325 68.5
-2.3899999 -3.5585001 -0.235 67.5
-0.53187376 -3.5214994 -0.25096527 170.41956
-0.45095611 -3.5501339 -0.25062287 251.80551
-0.36887863 -3.5859888 -0.25025526 252.80243
4.7909999 -3.5020001 -0.20200001 58
7.7926073 -3.5866077 -0.25046429 255.00002
7.8142638 -3.5372972 -0.25067186 255
-0.81048918 -3.4219551 -0.25044444 81.200005
3.68345 -3.4217508 -0.272475 50.100002
3.7383583 -3.4269242 -0.23172513 50.572517
4.7948003 -3.4897001 -0.23700002 57
4.814167 -3.4808056 -0.25763887 58.722221
7.850678 -3.452893 -0.25098929 255
-1.0546668 -3.3180003 -0.204 80.666672
3.6903632 -3.3838184 -0.29463637 50
3.7570474 -3.3613138 -0.25720742 50.510635
3.8079376 -3.3658752 -0.2076875 51.125
4.5581875 -3.3680003 -0.25343752 56.6875
7.8857598 -3.3711011 -0.25176272 255
7.9070315 -3.3220298 -0.24636362 255
-1.2822857 -3.2085714 -0.25728574 92.285721
3.7254672 -3.2899337 -0.28946668 51.066669
7.9379196 -3.2511601 -0.24967992 255
-1.5206954 -3.1061521 -0.25689131 81.95652
3.9784 -3.1039999 -0.21179998 50.799999
4.0135999 -3.1124001 -0.22619998 50.799999
7.9802184 -3.1529071 -0.25096551 255
8.0022221 -3.1012223 -0.24877779 255
-1.6670001 -3.036 -0.25150001 76.5
-1.5293254 -3.0969777 -0.2472022 85.134834
3.9470584 -3.0739882 -0.25304651 51.651161
4.0102 -3.0874002 -0.28140002 50.799999
8.0214548 -3.0593505 -0.24807017 205.89474
-2.7045786 -2.985579 -0.25336844 95.736839
-2.6813798 -2.9395285 -0.25548279 98.091957
-1.781 -2.9890001 -0.296 81
-2.6373296 -2.8523557 -0.24617794 92.533897
-2.0272193 -2.8873663 -0.24541466 74.829262
3.1949999 -2.8050001 -0.243 51
3.2546306 -2.8173561 -0.21967128 52.342464
3.3176842 -2.8236315 -0.21794738 51.578949
8.1373329 -2.8670001 -0.21566665 61
-2.6073005 -2.7843001 -0.2388 97.550003
-2.5806053 -2.7533157 -0.24357899 82.157898
-2.2786467 -2.774735 -0.23891176 77.323532
3.1692839 -2.7595117 -0.27844322 52.409092
3.2344632 -2.7755771 -0.26026806 52.721649
7.3756247 -2.7473748 -0.22924998 57.75
7.4282856 -2.763 -0.25271431 53.500004
-2.5479398 -2.6285651 -0.25131723 200.28714
-2.4847145 -2.6815717 -0.26128572 66.571434
7.3852 -2.6570001 -0.26460001 53.400002
7.452148 -2.6561112 -0.25844446 56.481483
7.5054998 -2.6459999 -0.242 53.5
-2.8144827 -2.5064101 -0.25290835 249.77501
-2.7511022 -2.5348389 -0.2510494 248.02908
-2.6503844 -2.5778518 -0.25053868 248.04292
-2.5977726 -2.5999541 -0.25127274 248.95456
8.3449049 -2.5685713 -0.24033333 53.333336
-3.0262036 -2.4121358 -0.25190407 241.4566
-2.9493351 -2.4451642 -0.25061071 246.0146
-2.863508 -2.4833791 -0.24996863 249.37617
6.8534546 -2.4132729 -0.23372731 52.636364
7.6395001 -2.405 -0.28 52
-3.2391908 -2.3183877 -0.25047666 221.20001
-3.1502736 -2.3580682 -0.2504935 226.93506
-3.0772147 -2.3903317 -0.24915791 229.60527
6.8455 -2.375 -0.20500001 54
7.6465244 -2.3856192 -0.25290477 52.666668
-3.503 -2.201 -0.2185 240.5
-3.4491596 -2.2236538 -0.24994703 236.55295
-3.3497074 -2.268332 -0.25126246 225.68233
-3.2895763 -2.295563 -0.25028756 216.8
6.961 -2.2393334 -0.2568889 52
-3.7111425 -2.1058998 -0.24827145 227.72858
-3.6490941 -2.1348016 -0.25078833 229.0368
-3.5491869 -2.1796567 -0.25093457 231.45482
5.4299998 -2.1210001 -0.29800001 56
6.1685719 -2.1627145 -0.22414286 53.14286
6.9557495 -2.191375 -0.24412499 52
-3.9219713 -2.0097234 -0.25029632 214.41667
-3.8522668 -2.0416627 -0.25033101 220.60345
-3.7626796 -2.0828693 -0.25038075 228.42677
5.3713336 -2.0046668 -0.23966667 53
6.0653334 -2.0206668 -0.212 50
6.2839999 -2.0610001 -0.206 50
6.303 -2.076 -0.214 50
-4.1362967 -1.9166559 -0.25060415 203.34375
-4.0490565 -1.95416 -0.25039917 209.9758
-3.9711282 -1.9878815 -0.25067282 212.54321
5.3724999 -1.9974999 -0.2225 53
5.6746669 -1.9093335 -0.271 50
-4.3825293 -1.8078035 -0.25058824 147.07843
-4.2546296 -1.8529748 -0.25069705 162.79478
-4.1894412 -1.8934139 -0.25032857 199.58571
5.6598001 -1.8869002 -0.24230002 50
-4.7259998 -1.717 -0.26100001 90
-4.6295972 -1.7116436 -0.25074708 142.75862
-4.5488877 -1.7373654 -0.24985188 166.61905
-4.4632044 -1.7703028 -0.25164792 161.44366
-4.2606397 -1.757272 -0.25084302 59.279068
4.6376595 -1.7354999 -0.25095451 55.227276
-4.8283753 -1.6142018 -0.25318265 139.625
-4.7481928 -1.6502885 -0.24953331 162.62051
-4.6703162 -1.6862955 -0.25077775 165.48148
4.9678006 -1.6601 -0.2676 51
5.0050001 -1.649 -0.20299999 51
-5.1269097 -1.5062729 -0.25718179 97.818184
-5.049458 -1.5213504 -0.25076425 144.04286
-4.9502945 -1.5595757 -0.24925618 139.5625
-4.8737698 -1.5875903 -0.2526747 131.33734
4.875 -1.579 -0.26699999 51
-5.3085241 -1.4046668 -0.25190476 152.52382
-5.2505636 -1.4327549 -0.25162923 156.25165
-5.1547508 -1.4772136 -0.25018576 154.25714
-5.0987496 -1.4974999 -0.21374999 176.25
4.069478 -1.4499999 -0.24082603 54.217392
-5.5242658 -1.3098569 -0.25826526 133.38776
-5.4478269 -1.3401465 -0.24885347 134.17241
-5.3598723 -1.3795406 -0.25409907 142.43243
3.878413 -1.3637826 -0.25491306 52.434784
3.9082 -1.3668001 -0.2198 51.200001
4.1479998 -1.3609999 -0.296 52
4.211 -1.3893335 -0.26499999 51
-5.7383251 -1.2190403 -0.24232432 152.13513
-5.646554 -1.2580124 -0.25419274 141.9518
-5.5706015 -1.2895337 -0.23713331 136.44444
-6.0038004 -1.101 -0.2572 155.8
-5.9442725 -1.1267658 -0.25115591 148.18182
-5.8511677 -1.1695586 -0.25318184 149.66234
-5.7925835 -1.1950002 -0.26275 150.66667
-4.9809999 -1.102 -0.20299999 88
-4.763 -1.136 -0.28600001 92
4.9910002 -1.104 -0.29699999 52
-6.1439199 -1.0350813 -0.2503379 147.77028
-6.0551682 -1.0759485 -0.2472308 142.5641
-6 -1.1 -0.228 138
-5.2070003 -1.0057499 -0.26374999 104.25
-5.1424999 -1.0434999 -0.2045 108.5
-4.9980001 -1.1 -0.205 84
3.1907222 -1.0087779 -0.28455552 52.833332
3.2354109 -1.0230536 -0.24853577 53.089287
3.9930665 -1.0119333 -0.28799999 54.000004
4.0124092 -1.0077273 -0.24218181 54
4.9959998 -1.092 -0.30000001 52
5.0510864 -1.0580653 -0.27932608 52.413044
5.1040001 -1.0055 -0.27499998 51.5
-6.451045 -0.90445453 -0.24754547 122.59091
-5.2530003 -0.97466671 -0.21266666 104.66667
3.1786938 -0.9450196 -0.25829634 57.684093
3.2078292 -0.95273852 -0.21538633 54.920456
3.9927499 -0.93933344 -0.23533332 51.833336
4.01792 -0.96997994 -0.23935996 52.98
4.6430001 -0.93599999 -0.264 50
5.0950003 -0.99599999 -0.27833337 53.666668
5.1209412 -0.96629411 -0.28382352 52.235294
7.5360003 -0.95949996 -0.29799998 50
-6.6417556 -0.81741536 -0.24356604 140.75471
-6.5481076 -0.85909051 -0.25519997 149.10909
-6.4850268 -0.8893612 -0.25455552 139.63889
3.1892207 -0.8718614 -0.27501538 54.789745
3.2257814 -0.85383642 -0.23449133 54.501743
3.9562449 -0.84079587 -0.27808157 52.836735
4.0081253 -0.84300005 -0.21675001 51
4.7119999 -0.84549999 -0.21799999 50
4.8683629 -0.83589572 -0.25342327 58.282207
-6.8529067 -0.72349072 -0.24269807 151.15094
-6.7482729 -0.77087295 -0.25405458 147.12727
-6.6910005 -0.79662496 -0.2665 143.25
3.2506144 -0.74383646 -0.24307019 53.654972
3.3092005 -0.74266666 -0.25704446 53.888889
3.9770484 -0.76602429 -0.25714633 51.195122
4.0202503 -0.73760003 -0.25140002 51.549999
4.8842015 -0.77697754 -0.25599998 58.595505
4.9123931 -0.72830415 -0.25626087 58.789856
-7.1171584 -0.60747367 -0.24631578 151.89474
-7.0480709 -0.63746428 -0.24523215 152.875
-6.9451966 -0.68101954 -0.26031375 144.94118
-3.7309532 -0.60452378 -0.2526429 53.023811
3.2734892 -0.65324491 -0.21945579 53.020409
3.3403575 -0.62950003 -0.29342857 54.357143
4.1764445 -0.62011111 -0.29622221 54.666668
4.9356389 -0.68025011 -0.24235183 57.787037
-7.3285556 -0.5125556 -0.24355555 159.27779
-7.2447882 -0.54911911 -0.25561908 145.21429
-7.1599407 -0.58636361 -0.25584853 149.90909
-3.7154489 -0.56648296 -0.24978235 51.479706
-3.6975412 -0.53124994 -0.25237501 51.75
3.2921431 -0.59628576 -0.22557144 52.857143
3.3715 -0.51230001 -0.29350004 53.600002
4.1816292 -0.55601841 -0.27709264 53.722221
4.2200603 -0.53449994 -0.27039391 53.696972
7.711 -0.55550003 -0.22325 51
-7.5436864 -0.41988572 -0.24885714 123.08572
-7.4434443 -0.45958334 -0.25347224 127.77778
-7.3806415 -0.4870801 -0.25215998 143.31999
3.3578529 -0.48247057 -0.28397056 52.764706
3.4510608 -0.44306061 -0.21915153 53.272728
4.1989999 -0.5 -0.25799999 53
4.247468 -0.45498785 -0.2693395 52.709877
-7.8055716 -0.30700004 -0.24742858 124.57143
-7.741539 -0.33520505 -0.24858974 121.30769
-7.6458206 -0.37478 -0.24940002 139.37999
-7.598 -0.39450002 -0.26300001 147.25
-6.9519997 -0.34575 -0.29374999 93
-6.8850002 -0.366 -0.266 94
3.3878636 -0.35254544 -0.27995455 54.090912
3.4627678 -0.34017438 -0.24602327 53.348839
3.5098081 -0.32255316 -0.21763831 53.446808
4.1524372 -0.30868748 -0.2569375 52.0625
4.2706847 -0.37194738 -0.26242104 51.947369
4.3000002 -0.354 -0.22 52
4.8569999 -0.30772728 -0.26345456 51.272728
-8.0217009 -0.20949998 -0.25025001 129.25
-7.9515572 -0.24020925 -0.25237209 130.53488
-7.8547873 -0.2832424 -0.24912123 120.15152
-7.1335001 -0.25800002 -0.234 96.5
-7.0781665 -0.2886667 -0.2211667 103.16667
3.455272 -0.24572334 -0.26318079 52.503845
3.5210788 -0.28128132 -0.23854685 52.828125
4.1770382 -0.27334619 -0.25365382 51.500004
4.1999998 -0.245 -0.257 52
4.3480506 -0.21185003 -0.2141 53.400002
4.8744998 -0.28727779 -0.2731111 51.388889
-8.2314548 -0.11654548 -0.24427275 113.31818
-8.151885 -0.1503846 -0.24407694 116.15385
-8.0745926 -0.1841111 -0.2555185 116.48148
-7.5339999 -0.107 -0.257 76
-7.4398003 -0.13160001 -0.245 75.200005
-7.3720002 -0.15099999 -0.26899999 81
3.4736557 -0.16749372 -0.27466875 53.118752
3.5399616 -0.14855428 -0.25715762 52.847828
4.3545418 -0.15362172 -0.2514382 58.554306
-8.44806 -0.018848483 -0.25460607 116.0303
-8.35005 -0.062549993 -0.24947499 122.55
-8.2839336 -0.092600003 -0.26199999 119.8
-7.7399998 -0.022 -0.205 98
-7.5766001 -0.094400004 -0.26079997 79
3.4940002 -0.094599999 -0.29480001 53.400002
3.5657768 -0.045488793 -0.25760606 53.266834
3.6053503 -0.033299994 -0.21299998 53.450001
4.3689475 -0.026605265 -0.24028946 51.789474
4.4340715 -0.025404762 -0.22245237 50.5
-8.703001 0.094999999 -0.25716668 128
-8.6410017 0.072083332 -0.24583332 121.13889
-8.5419121 0.024705881 -0.24841177 124
-7.8059998 0.017000001 -0.2685 99.5
-7.7880001 0.0070000002 -0.241 102
3.5874996 0.013224998 -0.28617507 52.700001
3.6433876 0.052548151 -0.24797928 53.754585
4.3959999 0.0040000002 -0.2305 51
-8.9242945 0.19141178 -0.24476472 122.17647
-8.8457994 0.15883331 -0.25636667 123.10001
-8.7531195 0.11963999 -0.25175998 124.04
-8.6936674 0.10966667 -0.221 84.333336
3.6772752 0.12590985 -0.25969523 54.047211
3.7051334 0.13633333 -0.22600004 53.133335
-9.1350508 0.28784999 -0.25314999 126.45
-9.0506668 0.251394 -0.24863636 138.93939
-8.9755001 0.21516667 -0.25266665 134.72223
9.4537153 0.28128573 -0.25414288 192.10715
28.610001 0.27900001 -0.222 125.5
-9.3366499 0.38629997 -0.25534999 116.1
-9.2505589 0.34794116 -0.24920584 113.7353
-9.1827145 0.31228578 -0.24971429 123.78572
9.4856186 0.33748004 -0.25102001 245.56
9.5064707 0.38588241 -0.2507647 245.94118
28.63711 0.35100001 -0.25633335 134.55556
-9.5476389 0.47667995 -0.24931999 128.59999
-9.4506216 0.43296555 -0.24793102 133.13792
-9.3752499 0.40899998 -0.27425 100.5
9.5327797 0.44610423 -0.25025371 245.52238
28.684376 0.46425003 -0.24725001 154
-9.6405563 0.54861909 -0.25085714 150.73016
-3.2341671 0.59870833 -0.24858336 62.833336
9.5754852 0.54504544 -0.25019699 241.86365
28.717167 0.55050004 -0.25766668 164.33334
-9.6222429 0.62093943 -0.25096968 159.8485
-9.5878029 0.67207295 -0.24982926 219.34146
-3.223798 0.62446415 -0.25122222 56.218388
-3.1901431 0.67752236 -0.24961764 57.908089
3.7513237 0.68488765 -0.25027272 159.25134
9.599 0.60100001 -0.29499999 217
9.6182632 0.6454308 -0.25003079 239.06154
28.754126 0.64624995 -0.24712501 165.125
-9.5606337 0.74880338 -0.25057575 175.75758
-3.161576 0.75119245 -0.25109032 94.56295
3.475848 0.79146594 -0.25042224 118.20741
3.5474405 0.7630319 -0.25053874 145.93661
3.646471 0.72482657 -0.25068736 165.48648
3.7043736 0.7024253 -0.24932496 161.60001
9.4879999 0.79799998 -0.29800001 79
9.5475721 0.75471437 -0.29500002 81.714287
9.6575623 0.74533868 -0.24785486 219.91934
28.798 0.75099999 -0.24699999 142.5
28.816 0.78799999 -0.23999999 148.66667
29.507999 0.73199999 -0.2475 175.5
-9.5243521 0.8376497 -0.25016668 173.65001
-9.4975624 0.88812506 -0.25 223.1875
-3.5105 0.84600002 -0.27250001 77.5
-3.4983335 0.84366673 -0.27399999 76.333336
-3.1159415 0.83919203 -0.24957696 193.12885
-3.0965331 0.88233614 -0.25172991 131.35036
3.2597272 0.87937957 -0.25044221 81.617165
3.3489394 0.84164786 -0.25135756 79.209091
3.4259615 0.8111065 -0.24895884 97.723534
9.4799995 0.80900002 -0.30000001 79
9.5559998 0.84600002 -0.29550001 72.5
9.6841431 0.82353574 -0.25471431 200.42857
9.7130003 0.86661786 -0.2419706 236.67647
28.833668 0.82499999 -0.24766666 133.33334
-9.4725342 0.95197225 -0.25084928 185.53424
-3.1021538 0.90430754 -0.24834615 78.807693
-3.0727429 0.95221204 -0.25045142 75.443573
3.2534218 0.95035905 -0.25056845 105.78633
9.6984997 0.90750003 -0.2985 87
9.7481861 0.95043755 -0.25014064 229.25
-9.4317102 1.0485799 -0.24962318 174.65218
-3.0258124 1.0491546 -0.25039515 82.275452
3.2856359 1.034304 -0.25077999 134.78
3.3057644 1.0841167 -0.24986029 108.89706
9.7839756 1.0338781 -0.25156096 239.78047
9.8069582 1.0860001 -0.25262505 241.625
-9.404706 1.1068233 -0.25047058 230.82353
-9.3815088 1.157746 -0.25057629 194.22034
-3.0009999 1.1000001 -0.22683334 88.416672
-2.9785693 1.1506484 -0.2508949 91.903648
3.3308089 1.1482346 -0.25043067 139.91832
9.8346424 1.1515183 -0.25141072 241.55359
-9.3401318 1.2486836 -0.25014481 171.21053
-2.9347959 1.248753 -0.25031182 115.65432
3.3645411 1.2313884 -0.2508007 98.966171
9.877923 1.2511094 -0.25079688 241.79688
-9.3104095 1.326667 -0.25343591 243.30769
-9.2874975 1.3760279 -0.24700001 209.05556
-2.9068446 1.3056469 -0.24992196 115.80851
-2.8828747 1.3585794 -0.25047243 122.09138
9.9208193 1.3509816 -0.25069091 244.52727
-9.2517319 1.4494265 -0.25022668 174.62668
-2.840014 1.4502336 -0.25059173 116.99261
9.9621944 1.4467138 -0.24973215 244.82144
-9.2178812 1.5443968 -0.2499999 237.16176
-9.1941109 1.594111 -0.25411111 200.66667
-2.8129153 1.517406 -0.24974544 103.83636
-2.7878268 1.5630627 -0.25067532 97.378822
9.9912605 1.5156084 -0.24804351 242.6087
10.013401 1.5699998 -0.25124997 243.75
-9.1658411 1.6440582 -0.25073531 144.54411
-2.749083 1.6475192 -0.25027701 83.69651
10.047389 1.6524813 -0.25233331 241.92593
-2.7138345 1.7275805 -0.25048831 77.622093
-2.6875527 1.7757 -0.25028348 71.548286
10.082771 1.7362818 -0.25120515 237.02565
10.102375 1.7795 -0.24762501 171
-9.1020002 1.816 -0.28549999 153.5
-9.0950003 1.8298572 -0.28014287 130
-2.6572707 1.8483214 -0.2506623 75.904915
-2.6165745 1.9369216 -0.25032336 73.454208
-2.5905671 1.9891726 -0.25046209 70.372414
-9.0080004 2.0929999 -0.234 92
-8.9827499 2.0904164 -0.26483333 138.66667
