# .PCD v0.7 - Point Cloud Data file format
VERSION 0.7
FIELDS x y z intensity
SIZE 4 4 4 4
TYPE F F F F
COUNT 1 1 1 1
WIDTH 1187
HEIGHT 1
VIEWPOINT 0 0 0 1 0 0 0
POINTS 1187
DATA ascii
-10.146601 -7.0468001 -1.354 65.599998
-10.0605 -7.0562496 -1.35375 64.75
-9.9457998 -7.0488 -1.3532001 65.599998
-9.8522005 -7.046 -1.3538001 66.200005
-9.7482004 -7.0572 -1.355 65.599998
-9.6440001 -7.0446 -1.3554 65.400002
-9.5439997 -7.0492501 -1.3555 63.25
-9.4505997 -7.0468001 -1.3548001 62.799999
-9.3626671 -7.0620003 -1.355 63.333336
-9.2488327 -7.0586672 -1.3531668 64
-9.1403332 -7.0393333 -1.3526666 65.333336
-9.0423336 -7.046001 -1.3518333 67.833336
-8.9414997 -7.06675 -1.3535 68
-8.8533335 -7.0426669 -1.3533334 70
-8.7422857 -7.0534291 -1.3545716 68.714287
-8.6506004 -7.0444002 -1.3548001 70.200005
-8.5510006 -7.0422497 -1.3555 70.375
-8.446167 -7.0603333 -1.3556666 69.666672
-8.3578339 -7.0465002 -1.3558334 70
-8.2496252 -7.0502496 -1.3548748 70
-8.1420002 -7.0589995 -1.3545002 71.333336
-8.0548754 -7.0471253 -1.3545001 71.75
-7.9544287 -7.0427151 -1.3555715 71.571434
-7.8518744 -7.0501242 -1.35675 72.875
-7.7465715 -7.0545721 -1.3578571 72.428574
-7.6372857 -7.050858 -1.3574287 72.714287
-7.5474296 -7.0537148 -1.3571429 73.14286
-7.4570007 -7.0425725 -1.3564286 72.571434
-7.3522501 -7.0491247 -1.3554999 73.375
-7.2449999 -7.052125 -1.3556249 74.125
-7.1418753 -7.0571251 -1.3548748 73.625
-7.0367146 -7.0590005 -1.3544285 74.428574
-6.9491005 -7.0468001 -1.3542 75.200005
-6.8491998 -7.0490999 -1.3542 76.099998
-6.7440004 -7.0427003 -1.3548998 75.5
-6.6323752 -7.0497499 -1.3547499 75.125
-6.5317497 -7.0484996 -1.3548751 74.875
-6.4340005 -7.0541 -1.3547999 74.5
-6.3381 -7.0405998 -1.3547999 74.599998
-6.2491002 -7.0480003 -1.3550999 75.900002
-6.1580005 -7.0553002 -1.3552999 74.400002
-6.0570006 -7.0426993 -1.3541001 74.200005
-5.9575834 -7.0499992 -1.3541667 75.583336
-5.8413577 -7.0450716 -1.3540715 75.714287
-5.7376666 -7.0477505 -1.3540834 75.75
-5.6488891 -7.0545559 -1.3543333 75.333336
-5.5618186 -7.0479093 -1.3540001 75.636368
-5.4551339 -7.0559335 -1.3549333 76.400002
-5.3470001 -7.0522995 -1.3553002 75.599998
-5.2571816 -7.0510006 -1.354091 75.818184
-5.1521182 -7.0488825 -1.3538235 75.588234
-5.0440912 -7.0570917 -1.3540001 74.454544
-4.9563341 -7.0474167 -1.3528333 74.166672
-4.8560557 -7.0451665 -1.3530557 75.611115
-4.7522001 -7.0450997 -1.3529999 74.5
-4.6525297 -7.0485883 -1.3529413 73.588234
-4.5472727 -7.0505457 -1.3529999 73.727272
-4.4511762 -7.0480003 -1.3530002 74.647057
-4.350091 -7.0525451 -1.3532727 76.272728
-4.2544999 -7.0469999 -1.3541666 78.277779
-4.1756668 -7.0326667 -1.355 77
-2.6516318 -7.0498419 -1.3513156 77.684212
-2.5518334 -7.0495553 -1.3518888 82.777779
-2.4529526 -7.0482864 -1.3524761 84.333336
-2.3519473 -7.0472622 -1.3521578 82.736839
-2.2499998 -7.0497618 -1.3518569 79.523811
-2.1512275 -7.0493178 -1.3529545 81.545456
-2.0491502 -7.0466003 -1.3532002 79.650002
-1.9509544 -7.0470457 -1.3535001 80.590912
-1.8513333 -7.0470471 -1.354238 84.190475
-1.7494545 -7.0467734 -1.355136 85.681824
-1.6949999 -7.0334997 -1.355 84
-13.431067 -6.9554672 -1.3292 190.60001
-13.3645 -6.9580002 -1.36025 87.25
-13.247499 -6.9554996 -1.3625 62
-13.0675 -6.9659996 -1.3559999 55.5
-12.926666 -6.9433336 -1.3533334 58
-12.823001 -6.9496665 -1.353 58.666668
-12.746 -6.9699998 -1.353 59
-12.6614 -6.9367995 -1.3538002 58.600002
-12.5435 -6.9519997 -1.3545001 58.5
-12.4195 -6.9445 -1.351 57
-12.328 -6.9749999 -1.349 58
-12.240667 -6.9426665 -1.349 59.333336
-12.1465 -6.974 -1.3494999 60.5
-12.0555 -6.9115 -1.3494999 63.5
-10.3515 -6.973 -1.3535 64
-10.2518 -6.9458003 -1.3538001 64.599998
-10.14525 -6.9460001 -1.3535 64.25
-10.0466 -6.9508004 -1.3534001 64
-9.9447508 -6.9472499 -1.35225 64
-9.8470001 -6.9437504 -1.3525 65.25
-9.7577505 -6.9632497 -1.35325 66.25
-9.6508331 -6.9515009 -1.3540001 66.666672
-9.5405006 -6.9450002 -1.3540001 65.5
-9.4397497 -6.9355001 -1.35225 65
-9.3515005 -6.9615002 -1.3514999 64.75
-9.2496672 -6.9493332 -1.3510001 66.5
-9.1477995 -6.9580002 -1.3507999 67.599998
-9.0485001 -6.9415007 -1.3516667 69.333336
-8.9488745 -6.9637504 -1.353125 72.25
-8.847167 -6.9471674 -1.354 71.833336
-8.7561665 -6.9473333 -1.3546667 72.833336
-8.6464291 -6.9584289 -1.3552858 70.714287
-8.5418339 -6.9395003 -1.3559999 70.833336
-8.4471674 -6.948 -1.3565 70.666672
-8.3428745 -6.9595003 -1.3559999 70.625
-8.2470007 -6.9500003 -1.3565999 69.800003
-8.1552496 -6.9431252 -1.3556249 70.25
-8.0410004 -6.9489999 -1.3557779 72.333336
-7.9415717 -6.9524293 -1.3561429 72
-7.849 -6.9503746 -1.357 72.125
-7.754715 -6.945714 -1.3572857 72.714287
-7.6568894 -6.9468899 -1.3574444 72.888893
-7.5481248 -6.9510002 -1.3568751 73.625
-7.4388571 -6.9547148 -1.3561429 74.14286
-7.3451433 -6.9540005 -1.3552859 75
-7.2557497 -6.9498749 -1.3556249 76.125
-7.1559997 -6.9511003 -1.3551998 75.099998
-7.0605555 -6.9496665 -1.3546666 75.444443
-6.95825 -6.9450002 -1.3548748 76
-6.8632498 -6.9542499 -1.35525 76.625
-6.7655001 -6.9505997 -1.3556999 75.800003
-6.6589093 -6.9554543 -1.3552727 74.636368
-6.567111 -6.9527774 -1.3552221 74.888893
-6.4599161 -6.9588332 -1.3555 74.583336
-6.3408332 -6.9405003 -1.3555832 74
-6.2371111 -6.9470005 -1.3557777 73.888893
-6.1417274 -6.9515452 -1.3553635 72.727272
-6.0449004 -6.9395995 -1.3547 72.900002
-5.9558892 -6.9492226 -1.3546666 75.111115
-5.8534288 -6.9508572 -1.3547856 75.5
-5.7440844 -6.9390001 -1.3546666 75.583336
-5.6456366 -6.9542723 -1.3546363 74.636368
-5.5552998 -6.9533005 -1.3549 75.599998
-5.4538832 -6.9538827 -1.3552352 75.529411
-5.3475456 -6.9543648 -1.3552729 73.909096
-5.2539997 -6.9477997 -1.3541001 74
-5.1481252 -6.9498129 -1.353875 74.6875
-5.0455456 -6.9511819 -1.3532728 74.181824
-4.9541545 -6.9456158 -1.3533076 74.615387
-4.8533845 -6.9495397 -1.3539231 75.769234
-4.753231 -6.945385 -1.3533077 74.92308
-4.6536875 -6.9531875 -1.3530626 74.625
-4.55475 -6.9485846 -1.3529166 74.166672
-4.4562349 -6.9529996 -1.3531178 74.411766
-4.3420558 -6.9524999 -1.3539444 76.111115
-4.2479167 -6.9469166 -1.3545001 77.333336
-4.1559377 -6.9425001 -1.3540626 75.75
-2.6310768 -6.955308 -1.3516153 75.384621
-2.5504782 -6.952435 -1.3527826 82.782608
-2.4502499 -6.9508491 -1.3528001 82.200005
-2.350714 -6.9495239 -1.3525714 81.14286
-2.2500458 -6.9483638 -1.3519998 80.454544
-2.1471906 -6.9512854 -1.3525714 80
-2.0508573 -6.9472861 -1.3534288 79.857147
-1.9512609 -6.9480872 -1.3535655 80.869568
-1.8492274 -6.9495907 -1.3545909 86.227272
-1.7516667 -6.950572 -1.3553331 87.809525
-1.6816666 -6.9451113 -1.3557777 86.666664
-13.441293 -6.8552356 -1.3329999 181.4706
-13.356201 -6.8484001 -1.3646001 73.200005
-13.238001 -6.8870001 -1.3625 60.5
-13.134501 -6.8540001 -1.3585 57
-13.056 -6.8340001 -1.3555 58.5
-12.961668 -6.857667 -1.353 58
-12.854 -6.8420005 -1.3540001 59.333336
-12.762333 -6.8553333 -1.3543334 59.666668
-12.6535 -6.8474998 -1.3555 59.5
-12.570333 -6.8543334 -1.3563333 59
-12.465335 -6.857667 -1.3533334 58
-12.359 -6.8600001 -1.3513334 57
-12.253668 -6.8623333 -1.349 60.333336
-12.138 -6.8479996 -1.34875 62.75
-12.046333 -6.8460002 -1.3493333 64.666672
-11.95225 -6.8470001 -1.3517499 65.75
-11.875999 -6.8185 -1.354 66
-10.263 -6.8850002 -1.353 64
-10.17 -6.8509998 -1.353 64.75
-10.0572 -6.8429999 -1.3524002 64
-9.9562492 -6.8487501 -1.3517501 65.25
-9.8608007 -6.8554001 -1.3520001 65.599998
-9.7488585 -6.8468571 -1.3522859 67.428574
-9.6479998 -6.8525996 -1.353 67.800003
-9.5492001 -6.8438005 -1.3528001 68.200005
-9.4594994 -6.8497496 -1.3525001 68.75
-9.3520002 -6.8530002 -1.351143 69.857147
-9.2586002 -6.8491998 -1.3512 72
-9.1505003 -6.8477497 -1.351375 71.75
-9.0527496 -6.855 -1.3512499 71.75
-8.9531431 -6.849143 -1.3518574 71.714287
-8.8504 -6.8587999 -1.3538001 71.800003
-8.7554283 -6.8487148 -1.3541429 72.285721
-8.6502857 -6.8445721 -1.355143 72.571434
-8.5506668 -6.8546672 -1.3551668 71.5
-8.4536667 -6.8439999 -1.3553333 71
-8.3536253 -6.8447499 -1.3555 69.5
-8.2573338 -6.8613338 -1.3558334 69.833336
-8.1490002 -6.8441668 -1.3553333 69.166672
-8.0546675 -6.8486667 -1.3556666 70.333336
-7.9541435 -6.8484287 -1.3567144 71.14286
-7.8461251 -6.8515005 -1.357125 71.125
-7.7422867 -6.8567147 -1.3568572 72.428574
-7.6515007 -6.8413334 -1.3565 73.5
-7.5522504 -6.8481255 -1.3559999 74.5
-7.4552498 -6.8459997 -1.3561249 75.875
-7.3522997 -6.8479996 -1.3556999 75.900002
-7.2513337 -6.8501115 -1.3554446 77.333336
-7.1461253 -6.851625 -1.3555 76.375
-7.0445557 -6.8489995 -1.3555554 77.333336
-6.9441004 -6.8530998 -1.3554 78
-6.8418002 -6.8546996 -1.3553002 77.599998
-6.743 -6.8478885 -1.3557777 75.666664
-6.6473999 -6.8463006 -1.3557001 75.400002
-6.5525551 -6.8581109 -1.355889 74.555557
-6.4595003 -6.8569999 -1.3558 74.800003
-6.3637776 -6.8515553 -1.3559999 74.111115
-6.2620001 -6.8515 -1.3558 73.5
-6.1546922 -6.8481541 -1.3553846 73.230774
-6.0439086 -6.8408179 -1.355091 73.454544
-5.9507003 -6.8522005 -1.3549999 74.200005
-5.8599997 -6.8478999 -1.3549999 75.599998
-5.7502146 -6.8480716 -1.3549285 76.285721
-5.6441665 -6.8504176 -1.3552501 76.75
-5.5552726 -6.852273 -1.3553637 75.909096
-5.4504013 -6.8518677 -1.3558666 75.400002
-5.3418341 -6.8510833 -1.3547499 74
-5.2537508 -6.8482504 -1.354 74.5
-5.1508756 -6.8490629 -1.3538125 75
-5.0427279 -6.852819 -1.3535454 74.181824
-4.9412351 -6.8513532 -1.353647 74.705879
-4.8447504 -6.8522501 -1.3544166 76.25
-4.7440624 -6.8455 -1.35375 76
-4.6449232 -6.8539233 -1.3530769 76.153847
-4.5481763 -6.8487058 -1.3534118 75.764709
-4.4549289 -6.8550715 -1.3536429 74.857147
-4.3524451 -6.8535004 -1.3539444 75.333336
-4.2481995 -6.8426003 -1.3543999 76.400002
-4.1531429 -6.8540711 -1.3535715 74.928574
-4.0701108 -6.8482227 -1.3529999 74.333336
-2.6142001 -6.8653998 -1.3520001 72.599998
-2.5523808 -6.8484282 -1.3527142 79
-2.45 -6.8536825 -1.3528184 79.636368
-2.3499093 -6.8465919 -1.3526367 79.727272
-2.2496667 -6.8512378 -1.3519998 79.523811
-2.1525002 -6.8524094 -1.3526365 79.045456
-2.0499129 -6.8482175 -1.3530872 78.521744
-1.9484763 -6.854238 -1.3537619 79.047623
-1.8495599 -6.8503594 -1.3552797 84.759995
-1.7498078 -6.8519616 -1.3558457 85.076927
-1.6701541 -6.8469229 -1.3564616 85.384621
-13.457556 -6.7536111 -1.3317778 177.44444
-13.3615 -6.7342501 -1.3635 72
-13.263 -6.763 -1.365 57
-13.1615 -6.7425003 -1.359 55.5
-13.056 -6.7189999 -1.353 56
-12.947333 -6.7600002 -1.3533335 59.666668
-12.866 -6.7349997 -1.3545001 61.5
-12.76325 -6.7525001 -1.3555 60.75
-12.650667 -6.7543335 -1.3540001 58
-12.548334 -6.7536669 -1.3546667 57
-12.447001 -6.7659998 -1.354 56
-12.331 -6.724 -1.349 54
-12.259001 -6.7443333 -1.3486667 58.666668
-12.167 -6.7536669 -1.3476667 61.666668
-12.06125 -6.75425 -1.3499999 65.5
-11.961333 -6.7509995 -1.3513334 68.666672
-11.8514 -6.7350001 -1.3546 66.800003
-11.728001 -6.7329998 -1.3545001 64
-10.035334 -6.7513332 -1.3513334 65
-9.9454994 -6.7632499 -1.351 66.25
-9.8456669 -6.7406664 -1.3516668 68.333336
-9.7519999 -6.7490001 -1.3525 68.75
-9.6531677 -6.7525001 -1.3533334 69.5
-9.5446663 -6.7485003 -1.3531668 69.833336
-9.4440002 -6.7485003 -1.3533334 71
-9.3467503 -6.7502503 -1.3535 71.75
-9.2598333 -6.7646666 -1.3525002 72.333336
-9.1627998 -6.7428002 -1.3524001 72.800003
-9.0492496 -6.7541256 -1.352625 72.875
-8.9514008 -6.7514 -1.353 73.400002
-8.8533745 -6.7477503 -1.353125 72.875
-8.7396679 -6.757 -1.3538334 72.833336
-8.6606007 -6.7504001 -1.3548001 73
-8.5617142 -6.7492857 -1.3558571 72.285721
-8.4528751 -6.7481251 -1.3553748 70.875
-8.34375 -6.7407498 -1.35475 70
-8.2482862 -6.7484288 -1.3538573 68.714287
-8.1478577 -6.7542858 -1.3538572 69.714287
-8.0442858 -6.7615719 -1.3548572 70
-7.9569998 -6.7544284 -1.3558571 70.857147
-7.8647141 -6.7470002 -1.3562857 70.857147
-7.7534995 -6.7452006 -1.3562 72
-7.6428576 -6.7497144 -1.3558573 74.571434
-7.5419998 -6.7550001 -1.3559999 75.625
-7.4414997 -6.7581668 -1.3559999 76
-7.3504996 -6.7434998 -1.355 77
-7.2520003 -6.7458577 -1.3547143 77.285721
-7.1566253 -6.754375 -1.3548751 78
-7.061667 -6.7477775 -1.3553331 77.555557
-6.9591823 -6.7520905 -1.3558182 77.818184
-6.8553004 -6.7482004 -1.3562 78.099998
-6.7547007 -6.7538004 -1.3559 77.800003
-6.6414557 -6.7449994 -1.3562727 77.454544
-6.5389094 -6.7542725 -1.3565456 75.545456
-6.4430003 -6.7538004 -1.3559999 74.900002
-6.3499999 -6.7578006 -1.3561 75.700005
-6.2591004 -6.7487001 -1.3559 74.400002
-6.1593995 -6.7528 -1.3555001 73.900002
-6.0482664 -6.7442007 -1.3555998 74.933334
-5.9364548 -6.7533636 -1.355091 75.545456
-5.8503003 -6.7505007 -1.3559 76.300003
-5.7532005 -6.7489338 -1.3559332 77.733337
-5.649601 -6.7467337 -1.3566003 78.133339
-5.5546665 -6.7535 -1.3568335 76.333336
-5.4464993 -6.750556 -1.3565556 75.777779
-5.3375835 -6.7446671 -1.3549999 75.583336
-5.2507 -6.7473006 -1.3541001 74.900002
-5.1455884 -6.7516475 -1.354 76.117645
-5.0471668 -6.7530837 -1.354 75.666672
-4.9485884 -6.7524118 -1.354 75.352943
-4.8482504 -6.7485838 -1.3540834 76.333336
-4.7517228 -6.7477226 -1.3540556 77.333336
-4.6518464 -6.7511539 -1.353923 78.153847
-4.5536113 -6.7506666 -1.3542777 77.5
-4.4499335 -6.7462668 -1.3543999 75.066673
-4.3603525 -6.7579999 -1.3542353 74.588234
-4.2504702 -6.7487054 -1.3540589 74.764709
-4.1469998 -6.7530723 -1.3535715 75.5
-4.0556111 -6.7556667 -1.3527778 74.5
-3.9870002 -6.7270002 -1.353 74.333336
-2.5445557 -6.7556672 -1.3528334 78.277779
-2.4484785 -6.753087 -1.3530003 78.95652
-2.3511426 -6.750381 -1.3530002 78.476189
-2.2532086 -6.7500834 -1.3521665 79.458336
-2.150625 -6.7511253 -1.3520415 79.125
-2.0501306 -6.7484336 -1.3528265 78.782608
-1.9503462 -6.753078 -1.3532695 81.96154
-1.8522176 -6.7493482 -1.3550432 84.478264
-1.7499585 -6.7485423 -1.3557913 82.125
-1.6548696 -6.7475653 -1.3560869 81.826088
-13.47421 -6.6497364 -1.3318422 177.1579
-13.373 -6.6503334 -1.3640001 71
-13.269 -6.6609998 -1.363 60
-13.134 -6.6560001 -1.357 56
-13.036667 -6.6473341 -1.353 57.666668
-12.934334 -6.6570005 -1.3536667 61
-12.8545 -6.6464996 -1.3555 61.75
-12.743668 -6.6466665 -1.3576667 59.666668
-12.628 -6.671 -1.3559999 56.5
-12.534 -6.6415 -1.352 56.5
-12.435667 -6.6663337 -1.3510001 59
-12.374 -6.6259999 -1.352 61
-12.245667 -6.6373339 -1.3446667 58.333336
-12.140501 -6.6491671 -1.3491668 64.166672
-12.04275 -6.645 -1.353 66.5
-11.954801 -6.6475997 -1.3542001 66
-11.8455 -6.64325 -1.35525 66.25
-11.756001 -6.652 -1.3555 65
-11.664667 -6.6483335 -1.3536667 63.666668
-11.575001 -6.645 -1.3535 65.5
-9.9219999 -6.6746664 -1.3513334 69
-9.8528004 -6.6426005 -1.3522002 69.800003
-9.7510014 -6.6578331 -1.3531668 70.166672
-9.651 -6.637167 -1.3538334 69.833336
-9.5483999 -6.6598001 -1.3538001 69.800003
-9.4396009 -6.6440005 -1.3534001 70.400002
-9.3458328 -6.6606669 -1.354 71
-9.2414007 -6.6444001 -1.353 70.800003
-9.1557999 -6.6634002 -1.3524001 71.800003
-9.0634289 -6.6418576 -1.3524287 73.571434
-8.9541664 -6.657167 -1.3528335 73.666672
-8.8505011 -6.6520004 -1.3535001 74.166672
-8.752286 -6.6531429 -1.3541429 73.857147
-8.6475716 -6.6598573 -1.3548571 73.714287
-8.5516663 -6.6491671 -1.3558334 72
-8.4507141 -6.6447148 -1.3552858 70.714287
-8.3450003 -6.6567144 -1.3545716 70.428574
-8.256834 -6.6475 -1.3538334 70
-8.1543751 -6.6472497 -1.353125 70.625
-8.0510006 -6.6561246 -1.3536251 71.5
-7.9394007 -6.6480012 -1.3546 71.200005
-7.8354292 -6.6538572 -1.3555714 71.285721
-7.7415719 -6.6437144 -1.3558573 73.14286
-7.6551437 -6.6462865 -1.3558573 75.428574
-7.5587778 -6.6492219 -1.355889 77.555557
-7.4586997 -6.6553001 -1.3555999 77.099998
-7.3441253 -6.6444998 -1.3545001 77.375
-7.2431116 -6.651444 -1.3542223 77.666664
-7.1427002 -6.6526003 -1.3544 78.5
-7.0426669 -6.6489997 -1.3552223 79.333336
-6.9474444 -6.6513338 -1.3559999 78.111115
-6.8481116 -6.6467772 -1.3565556 77.888893
-6.7597003 -6.6542001 -1.3568001 77
-6.6592736 -6.6527276 -1.3568183 77.909096
-6.5552731 -6.657455 -1.3569093 76.636368
-6.4461665 -6.6490002 -1.3568335 75.25
-6.3379169 -6.6509166 -1.3563335 76.416672
-6.2390008 -6.6464548 -1.3560001 75.909096
-6.1516995 -6.6547999 -1.3561 75.800003
-6.0577269 -6.6548185 -1.3561819 75.272728
-5.9489374 -6.6481252 -1.3570001 77.125
-5.8407645 -6.6500001 -1.3598236 81.352943
-5.7476468 -6.6581764 -1.3621175 79.117645
-5.6482 -6.6449332 -1.3608 81.200005
-5.5524001 -6.6408005 -1.3596668 80.466667
-5.4491053 -6.6428943 -1.3585262 78.052635
-5.3443851 -6.6457691 -1.3567693 79.615387
-5.2501431 -6.6420951 -1.3586668 83.666672
-5.1535234 -6.6522393 -1.3579524 82.523811
-5.0474501 -6.6482506 -1.3587998 84.150002
-4.9481502 -6.6519504 -1.35665 78.849998
-4.8513336 -6.6464996 -1.355 80.25
-4.7532105 -6.6488423 -1.3549472 81.210526
-4.6423531 -6.6460586 -1.355294 80.235298
-4.5528669 -6.6560001 -1.3550667 77.933334
-4.449111 -6.649888 -1.3549442 75.666664
-4.3530002 -6.649714 -1.3546427 74.214287
-4.2564206 -6.6534739 -1.3540527 74.789474
-4.1476321 -6.6536851 -1.3536843 75.315788
-4.0477996 -6.6508665 -1.3531334 75.000008
-3.9640667 -6.6494675 -1.353 74.53334
-2.5260005 -6.6616921 -1.3535384 77.384621
-2.4499998 -6.6506791 -1.3534801 79.439995
-2.3480418 -6.6518755 -1.3530002 79.416672
-2.2510436 -6.6507397 -1.3529568 80.869568
-2.1495385 -6.6512308 -1.352577 82.42308
-2.0475385 -6.6475387 -1.3526925 83.038467
-1.9485385 -6.6511531 -1.3543077 85.269234
-1.85 -6.6490374 -1.3550367 85.111115
-1.7510836 -6.651 -1.3553747 82.75
-1.65332 -6.6504397 -1.3563197 81.519997
-1.5847499 -6.6403751 -1.355125 74
-13.503668 -6.5261669 -1.3193334 205.66667
-13.473784 -6.5595717 -1.343857 146.64287
-13.351 -6.5559998 -1.364 65.5
-13.282 -6.5430002 -1.362 59
-13.1845 -6.5880003 -1.3594999 57.5
-13.053333 -6.5393333 -1.355 58.666668
-12.935667 -6.5553336 -1.355 61
-12.842334 -6.5483336 -1.3573334 60
-12.751667 -6.5629997 -1.3570001 58
-12.658 -6.5949998 -1.357 57
-12.516 -6.5609999 -1.351 56
-12.438334 -6.5606666 -1.3486667 58.333336
-12.3435 -6.5552502 -1.351 61.75
-12.249199 -6.5514002 -1.3528 61.799999
-12.13175 -6.5457501 -1.3535 62.25
-12.037333 -6.5440001 -1.3546667 62
-11.941334 -6.5633335 -1.3553333 62
-11.853001 -6.5304999 -1.3540001 61
-11.74675 -6.5687499 -1.355 62.5
-11.652334 -6.5446672 -1.3543333 62.666668
-11.5525 -6.5557499 -1.354 65
-11.44675 -6.5482497 -1.35475 65.25
-11.313 -6.5050001 -1.354 64
-9.8120003 -6.5830002 -1.353 70
-9.7262497 -6.552 -1.3535 69
-9.6382504 -6.5539999 -1.3535 69.25
-9.5423994 -6.5526004 -1.3538001 70
-9.4518337 -6.5558329 -1.3531668 71.333336
-9.3428574 -6.5442858 -1.3532859 72.857147
-9.2467499 -6.5552502 -1.353 70.75
-9.1448574 -6.5510001 -1.3525716 72
-9.0354004 -6.5656009 -1.3532001 74.200005
-8.9565716 -6.546 -1.3541429 74.14286
-8.8498745 -6.5557504 -1.3544998 73.75
-8.7465 -6.5561252 -1.355125 73.125
-8.6528578 -6.5434284 -1.3557143 72.14286
-8.5491438 -6.5595713 -1.3560001 70.857147
-8.4533339 -6.5498328 -1.3558334 70.5
-8.3551102 -6.5447779 -1.3552221 70.333336
-8.2401247 -6.5463753 -1.3544999 70.25
-8.1377497 -6.5574999 -1.354125 71.375
-8.0504436 -6.5472221 -1.355111 71.444443
-7.9570007 -6.5434289 -1.3552859 71.857147
-7.8573747 -6.5541253 -1.3555 71.875
-7.7452226 -6.545445 -1.3555557 74
-7.6389999 -6.5511112 -1.3559999 76.111115
-7.5388889 -6.5518885 -1.3567778 77.666664
-7.4377499 -6.553 -1.35675 77.75
-7.3540001 -6.5451255 -1.3548751 78.75
-7.2603998 -6.5522995 -1.3548998 78.400002
-7.1508994 -6.5520997 -1.3549 76.900002
-7.0517001 -6.5514002 -1.3551998 78.300003
-6.9432731 -6.5510907 -1.3561817 78.36364
-6.8404541 -6.549273 -1.3570911 78.272728
-6.7405562 -6.5532217 -1.3571112 76.777779
-6.6533008 -6.5495005 -1.3570002 76.200005
-6.5528002 -6.5518999 -1.3571001 76.099998
-6.4561005 -6.549901 -1.3563999 73.900002
-6.362 -6.5526004 -1.3561001 72.900002
-6.2520003 -6.5514541 -1.3558182 74.36364
-6.1429167 -6.5483336 -1.3557501 74.583336
-6.0501995 -6.5531998 -1.3562001 75.099998
-5.9534168 -6.5524168 -1.3565 75.25
-5.8441248 -6.5475626 -1.359375 81.375
-5.7508335 -6.552 -1.3654168 71
-5.6467147 -6.5570006 -1.3635715 70.857147
-5.5526009 -6.5579338 -1.3646001 78.800003
-5.4530005 -6.5606666 -1.3653333 75.333336
-5.3512778 -6.562778 -1.3646666 76.833336
-5.2566156 -6.5572314 -1.3649231 80.615387
-5.1467061 -6.5488238 -1.3653527 84.588234
-5.0555296 -6.559824 -1.3641177 87.705879
-4.9559469 -6.5485792 -1.3657368 86.263161
-4.8490558 -6.5488338 -1.3578333 84.055557
-4.7518573 -6.5545712 -1.356643 84
-4.6491499 -6.54915 -1.3565 81.050003
-4.5502729 -6.5555458 -1.3553635 78
-4.4584999 -6.5472999 -1.3550497 77.599998
-4.3481174 -6.5472941 -1.3548232 75.470589
-4.2584 -6.5547333 -1.3541334 75.000008
-4.1558003 -6.5530505 -1.3539001 75.75
-4.0508571 -6.5504289 -1.3540953 76.571426
-3.9457002 -6.5520501 -1.3536 75.650002
-3.8735003 -6.5361671 -1.3536667 75.166672
-2.5135002 -6.5725002 -1.354 64.5
-2.4509997 -6.5493999 -1.3539999 77.799995
-2.34992 -6.5498796 -1.3538001 79
-2.2491856 -6.5536661 -1.3534077 81.074074
-2.1485002 -6.5514998 -1.3532311 82.269234
-2.0505998 -6.5505199 -1.3539599 84.080002
-1.9503459 -6.5526919 -1.3547306 84.96154
-1.8519599 -6.5482807 -1.3549997 85.639999
-1.750393 -6.5511079 -1.3554639 84.428574
-1.6474074 -6.5515552 -1.3559624 82.111115
-1.5707999 -6.5449338 -1.3557999 79.000008
-13.512143 -6.4436431 -1.3265002 189.28572
-13.472 -6.4555006 -1.3571666 105
-13.361 -6.4467497 -1.3634999 63.25
-13.238 -6.4490004 -1.3594999 57.5
-13.156 -6.4294996 -1.3575001 58.5
-13.065668 -6.4566669 -1.3563333 59
-12.9435 -6.4467497 -1.35575 59.25
-12.848666 -6.4503336 -1.3563333 59
-12.7635 -6.4580002 -1.3564999 57.5
-12.656 -6.4635 -1.3540001 56
-12.546249 -6.4369998 -1.3517499 56.75
-12.416 -6.4594998 -1.349 59
-12.351749 -6.4555001 -1.35025 61.25
-12.241401 -6.4409995 -1.3538001 61
-12.1645 -6.4455004 -1.355 58
-12.051001 -6.4659996 -1.3543334 57.333336
-11.937 -6.4215002 -1.3510001 57.5
-11.855 -6.4589996 -1.35325 59.25
-11.740334 -6.4650002 -1.3533334 60.666668
-11.641001 -6.4490004 -1.3533334 62.333336
-11.547501 -6.4475002 -1.35375 63
-11.4536 -6.4446001 -1.3548001 64.200005
-11.354 -6.4526668 -1.3543333 64.333336
-11.259334 -6.4359999 -1.354 64
-11.166 -6.4200001 -1.353 65
-9.6169996 -6.4785004 -1.353 69
-9.5528345 -6.4465003 -1.353 69.833336
-9.441 -6.452167 -1.353 71.166672
-9.3534002 -6.4402003 -1.3536 72.200005
-9.2495718 -6.4614291 -1.3538573 72.14286
-9.1420002 -6.4438334 -1.353 72.333336
-9.0438747 -6.4541254 -1.3536249 74.375
-8.9367142 -6.4624286 -1.355 73.14286
-8.8483343 -6.4355001 -1.3561666 71
-8.7485008 -6.4528332 -1.3553333 71
-8.6501665 -6.4508338 -1.3556666 69.833336
-8.554143 -6.4518576 -1.3550001 68.714287
-8.4413338 -6.4588332 -1.3551667 68.5
-8.3526001 -6.4496002 -1.3554 69
-8.2608566 -6.4452863 -1.3552858 69.857147
-8.1518755 -6.451375 -1.355875 71.125
-8.0473328 -6.4445553 -1.3564445 72.222221
-7.9467149 -6.4611425 -1.3561428 71
-7.8486667 -6.4509997 -1.3557777 71.777779
-7.7618575 -6.4414287 -1.3554285 74.714287
-7.6616006 -6.4482994 -1.3563 76.599998
-7.5566669 -6.4477773 -1.356889 77.555557
-7.4592218 -6.4497781 -1.356889 76.888893
-7.3458753 -6.4472504 -1.355875 77.25
-7.2496004 -6.4521995 -1.3559 78.700005
-7.1466665 -6.451333 -1.3553333 76.666664
-7.0485001 -6.4500999 -1.3557 76.700005
-6.9548006 -6.4530001 -1.3565 77.800003
-6.8590007 -6.4531999 -1.3570002 77.900002
-6.7603645 -6.4504542 -1.3572729 77.272728
-6.6511669 -6.4548335 -1.3571668 76.916672
-6.541182 -6.4528179 -1.3565456 75.181824
-6.4416003 -6.4421997 -1.3559 74.200005
-6.3459091 -6.4462724 -1.3549089 74.36364
-6.247818 -6.4490914 -1.3546363 75.909096
-6.1542501 -6.4577503 -1.3549999 75.583336
-6.0500832 -6.447917 -1.3549999 75.166672
-5.9520001 -6.4476361 -1.3554544 75.454544
-5.8488569 -6.4490714 -1.3567144 77.5
-5.7628999 -6.4486003 -1.362 78.400002
-5.6570005 -6.4473634 -1.3583636 68.818184
-5.553834 -6.4437504 -1.3578334 72.916672
-5.4597001 -6.4555001 -1.3611001 72.800003
-5.3565559 -6.4516664 -1.3605554 68.555557
-5.2513642 -6.4560914 -1.361182 71.727272
-5.1417146 -6.4469285 -1.3620715 81.428574
-5.0430002 -6.4522505 -1.3651667 83.583336
-4.9536662 -6.4557338 -1.3685334 86.333336
-4.8551879 -6.4591875 -1.3658125 86.1875
-4.7573528 -6.4475889 -1.3592941 85.823532
-4.6583886 -6.4558892 -1.3582778 82.944443
-4.5471821 -6.4477277 -1.357 82.545456
-4.4469519 -6.4478102 -1.3583332 81.714287
-4.3572731 -6.4499092 -1.3577726 80.590912
-4.2443333 -6.4510479 -1.3547142 77.333336
-4.1437778 -6.4472222 -1.354722 77.055557
-4.049727 -6.4524546 -1.3568636 80.954544
-3.9547269 -6.4518185 -1.3556362 78.136368
-3.8575263 -6.4424205 -1.3540527 76.789474
-3.7919998 -6.408 -1.354 79.5
-2.4361176 -6.4532361 -1.3539412 76.411766
-2.3526669 -6.4516253 -1.3539584 78
-2.2516401 -6.4507604 -1.35352 80.400002
-2.1518519 -6.4508514 -1.3536668 82.222221
-2.0512142 -6.4494281 -1.3541073 82.857147
-1.9522961 -6.4531851 -1.3548516 83.777779
-1.8495713 -6.4518924 -1.3552139 84.928574
-1.7503104 -6.4477592 -1.3559994 84.241379
-1.6508573 -6.4553576 -1.3563212 82.678574
-1.5521852 -6.4490008 -1.3560368 81.925926
-13.522499 -6.3474998 -1.3300624 177.1875
-13.4635 -6.3457499 -1.3629999 81.5
-13.293 -6.3319998 -1.3605 56
-13.16 -6.3295002 -1.3564999 59
-13.053749 -6.349 -1.35575 59.75
-12.9675 -6.3369999 -1.3559999 59
-12.869667 -6.3393335 -1.3566666 58.666668
-12.752666 -6.3420005 -1.3546667 58
-12.653 -6.3520002 -1.3540001 57.666668
-12.539667 -6.3350005 -1.3523334 58
-12.444667 -6.3456664 -1.3503335 59
-12.345 -6.3573999 -1.3521999 60
-12.254 -6.336 -1.3540001 59
-12.1475 -6.3485003 -1.3540001 57.75
-12.035334 -6.3479996 -1.3516668 58
-11.957001 -6.3354998 -1.349 58
-11.8545 -6.348 -1.3497499 59.25
-11.754 -6.3610001 -1.351 60.5
-11.65725 -6.3464999 -1.3514999 61.75
-11.556499 -6.34375 -1.35325 62.75
-11.453334 -6.3390002 -1.3543333 62.666668
-11.36425 -6.3642497 -1.3545001 62
-11.250667 -6.3500004 -1.3533334 62.666668
-11.150249 -6.3457499 -1.353 64.75
-11.044333 -6.3256674 -1.353 65
-9.507 -6.3959999 -1.353 71
-9.4467993 -6.355 -1.3534001 71.800003
-9.3483334 -6.3486671 -1.3535001 71.5
-9.2486668 -6.3493338 -1.3533334 72.166672
-9.1560001 -6.3505001 -1.3533334 72
-9.0575724 -6.3442855 -1.3542858 73.14286
-8.9532499 -6.3577499 -1.3560001 71.5
-8.8548002 -6.3528004 -1.3559999 68.200005
-8.7481432 -6.3429999 -1.3545716 67.857147
-8.6491995 -6.3582001 -1.3540001 68.599998
-8.5487137 -6.3521433 -1.3534286 68.714287
-8.4467497 -6.3525 -1.35375 69.125
-8.3439999 -6.3594289 -1.3544286 69
-8.2495556 -6.3496671 -1.3554446 70.222221
-8.1549997 -6.3502498 -1.3565 71.125
-8.0553331 -6.3462224 -1.3572223 70.888893
-7.9503746 -6.3468752 -1.3572501 70.875
-7.849556 -6.3513331 -1.356889 72
-7.7401114 -6.3508887 -1.3565556 74.555557
-7.6447778 -6.349555 -1.3573334 75.888893
-7.5580001 -6.3504286 -1.3577144 76.14286
-7.4512 -6.3512998 -1.3567001 76.300003
-7.3515 -6.344625 -1.35575 77.25
-7.2594442 -6.3516669 -1.3557777 78.222221
-7.1517506 -6.3542495 -1.35575 77.583336
-7.055625 -6.3472495 -1.3565 76.125
-6.9568329 -6.3512497 -1.3563335 77.166672
-6.8490839 -6.3470001 -1.3570833 77.75
-6.7449999 -6.346889 -1.3576666 76.444443
-6.6531997 -6.3548002 -1.3575 76.599998
-6.5571823 -6.3516369 -1.3568183 75.909096
-6.4622002 -6.3453002 -1.3559002 75.300003
-6.3542309 -6.3543077 -1.3550768 75.769234
-6.2496929 -6.346077 -1.3557693 77.076927
-6.1522498 -6.3522501 -1.3561666 77.083336
-6.05725 -6.3548336 -1.3553332 75.416672
-5.9533749 -6.3474379 -1.3549373 75.5625
-5.852818 -6.3532729 -1.3565456 77.090912
-5.7525339 -6.3445339 -1.3572669 77.200005
-5.6507702 -6.3465385 -1.3596925 79.384621
-5.5509524 -6.3522382 -1.3592383 80.761909
-5.4491816 -6.3451819 -1.3571819 78
-5.3568673 -6.3472004 -1.3556001 76.400002
-5.2564287 -6.3427863 -1.3543572 74.928574
-5.1494284 -6.3458571 -1.3560001 77
-5.0403576 -6.3513575 -1.3596427 80.428574
-4.9497504 -6.3534174 -1.3634167 82.166672
-4.8540006 -6.3407006 -1.3632001 74.900002
-4.7377329 -6.3556671 -1.3598 79.200005
-4.6434617 -6.3477693 -1.3573847 79.615387
-4.5565553 -6.3555551 -1.3598334 84.111115
-4.4484677 -6.3468013 -1.3640668 82.53334
-4.3481178 -6.3538237 -1.3648235 74.823532
-4.2484708 -6.3554707 -1.355882 78.058823
-4.152667 -6.3523335 -1.3561428 79.761909
-4.0531306 -6.3489127 -1.3583044 81.478264
-3.9500773 -6.353538 -1.3617693 83
-3.84605 -6.3475995 -1.3568499 82
-3.7692356 -6.3363523 -1.3595295 89.117645
-2.4182222 -6.3593335 -1.3538889 78.444443
-2.3515928 -6.3528891 -1.3540369 80.888893
-2.2515862 -6.3530693 -1.3539311 82.206894
-2.1458621 -6.3496895 -1.3541379 84.034485
-2.0470357 -6.3494291 -1.3545715 84.857147
-1.950069 -6.3528275 -1.3551722 84.827583
-1.8505174 -6.3507247 -1.3558615 85.965515
-1.7496551 -6.3502064 -1.3561374 84.517242
-1.6503549 -6.3521934 -1.3569676 82.387093
-1.5495485 -6.350678 -1.3568063 84.387093
-1.4815555 -6.3391109 -1.3562223 84.222221
-13.53406 -6.248353 -1.331059 182.23529
-13.46325 -6.2477503 -1.364 76.75
-13.368 -6.2650003 -1.3635 59.5
-13.164333 -6.2533336 -1.355 58.333336
-13.040335 -6.2350001 -1.3553333 60.666668
-12.9345 -6.2509999 -1.3555 59
-12.870501 -6.23 -1.355 59
-12.783501 -6.2474999 -1.355 58
-12.654249 -6.2532501 -1.35375 57.75
-12.547501 -6.23 -1.3525 58
-12.438749 -6.2445002 -1.3527501 58.75
-12.3545 -6.2315001 -1.352 58.5
-12.25475 -6.2485003 -1.352 59.75
-12.1755 -6.2375002 -1.352 59
-12.046 -6.2506666 -1.3506668 58
-11.934751 -6.2470007 -1.35025 59.5
-11.834667 -6.2483339 -1.3503335 60.666668
-11.75025 -6.25425 -1.3517499 62.25
-11.657249 -6.2427502 -1.3527501 63
-11.54825 -6.2497497 -1.35325 62.75
-11.47 -6.2536669 -1.3536667 62.666668
-11.3558 -6.2543998 -1.3536 61.799999
-11.254333 -6.2653332 -1.353 61.666668
-11.157749 -6.2389998 -1.3522501 63.25
-11.064501 -6.2507501 -1.3525001 64.25
-10.9525 -6.2562504 -1.35325 64.75
-10.872499 -6.2244997 -1.3535 64.5
-10.784 -6.2010002 -1.354 64
-9.3393345 -6.2773333 -1.354 72
-9.2556677 -6.2461662 -1.3535001 71.333336
-9.1412859 -6.2501431 -1.3535715 72.714287
-9.0412865 -6.2508574 -1.3550001 72
-8.9489994 -6.2433333 -1.3556666 69.166672
-8.8463335 -6.2603335 -1.3553333 67.5
-8.7556 -6.2416 -1.3538001 67
-8.6525717 -6.2572856 -1.353143 68.571434
-8.5545712 -6.2520008 -1.353 69.571434
-8.4552498 -6.2553754 -1.3536251 70.125
-8.3511248 -6.2474999 -1.354625 70.125
-8.2416668 -6.2470002 -1.3557777 70.555557
-8.1409998 -6.2532501 -1.357125 71.25
-8.0474997 -6.2502508 -1.357875 71.25
-7.9548745 -6.2446251 -1.3577499 70.25
-7.8526249 -6.2508755 -1.357125 71.375
-7.7583752 -6.2434998 -1.35675 73.25
-7.6508746 -6.252625 -1.3564999 74.25
-7.5516253 -6.2511253 -1.3566251 75.25
-7.4440994 -6.2494006 -1.3562001 75.599998
-7.3418746 -6.2506247 -1.3559999 76.375
-7.2459002 -6.2557001 -1.3561 78.5
-7.1459002 -6.2482004 -1.3571 78.099998
-7.0538001 -6.2543006 -1.3571 77.800003
-6.9556999 -6.2537003 -1.3570002 76.300003
-6.8557277 -6.2511821 -1.3576365 79
-6.7596664 -6.2509995 -1.3579167 76.833336
-6.6526155 -6.2508464 -1.3576924 75.692314
-6.5404162 -6.2456675 -1.3570002 75.083336
-6.4417 -6.2464004 -1.3562 74.800003
-6.3520913 -6.2508178 -1.3557272 76
-6.2541432 -6.2545004 -1.3559998 76.285721
-6.1473341 -6.2455835 -1.3561666 75.416672
-6.0500007 -6.2490907 -1.3557273 75.727272
-5.9499226 -6.2570004 -1.3550768 75.230774
-5.8529291 -6.2432857 -1.3554999 76.857147
-5.7447224 -6.2486668 -1.3576667 79.944443
-5.6407142 -6.2545004 -1.3602144 81.357147
-5.5513849 -6.2506928 -1.3626155 81.769234
-5.4502501 -6.2567501 -1.3599999 79.583336
-5.3485003 -6.2502227 -1.3585554 81.944443
-5.2442865 -6.254643 -1.3557143 79.5
-5.1485558 -6.2478328 -1.3555554 80.5
-5.0450459 -6.2522273 -1.3576818 82.545456
-4.950429 -6.2471437 -1.3595713 81.5
-4.8523746 -6.2373128 -1.3578125 78.6875
-4.7509232 -6.2439237 -1.3556153 77.307693
-4.6587057 -6.2470002 -1.3558233 78.235298
-4.5592632 -6.2500005 -1.3576316 80.736839
-4.454905 -6.2459049 -1.3630477 83.380951
-4.3590002 -6.254384 -1.3672307 69.92308
-4.2507896 -6.2432098 -1.3582107 75.736839
-4.1558418 -6.2529473 -1.356105 78.157898
-4.0508337 -6.2556677 -1.3592918 80.583336
-3.9431763 -6.2525883 -1.3618234 82.823532
-3.8462503 -6.2500834 -1.3621668 86.125
-3.7564542 -6.2543635 -1.3680303 92.909096
-3.691 -6.2242007 -1.3759999 91.400002
-2.4070001 -6.2940001 -1.354 68
-2.3460002 -6.2533078 -1.3543845 83.115387
-2.2495356 -6.2527142 -1.3540714 83.857147
-2.1510358 -6.2497492 -1.354 84.285721
-2.05425 -6.248107 -1.3548213 85.14286
-1.9513749 -6.2521873 -1.3555621 85.5625
-1.8506206 -6.2545166 -1.3562754 85.586205
-1.7524002 -6.253366 -1.3568999 84.26667
-1.650303 -6.2473025 -1.3570606 83.393944
-1.5510319 -6.2511926 -1.3575807 85.516129
-1.4673477 -6.2486959 -1.3576087 84.04348
-1.1605 -6.224 -1.357 82
-13.545888 -6.1486111 -1.3313334 170.22223
-13.478334 -6.1623335 -1.3626666 80
-13.361 -6.1490002 -1.363 59
-13.243 -6.1654997 -1.3564999 57
-13.129 -6.1730003 -1.3545001 59.5
-13.040335 -6.1476669 -1.3546667 61
-12.9555 -6.151 -1.355 59.5
-12.862667 -6.1500006 -1.3546667 58.666668
-12.7465 -6.1599998 -1.354 58.5
-12.659334 -6.1506667 -1.3533334 58.333336
-12.546 -6.1610003 -1.3525 58
-12.4665 -6.1315002 -1.3499999 58.5
-12.347667 -6.1536665 -1.3503335 59
-12.243999 -6.1175003 -1.349 59.5
-12.147499 -6.1554999 -1.3502499 60.5
-12.03975 -6.1582499 -1.351 60.5
-11.939667 -6.1450005 -1.3510001 61.333336
-11.8475 -6.1537499 -1.3512499 61.25
-11.755501 -6.1437497 -1.3525001 62.5
-11.64725 -6.1620002 -1.3535 62.75
-11.55925 -6.15275 -1.35425 62
-11.4505 -6.1595001 -1.3540001 62
-11.348249 -6.1412497 -1.3535 61.5
-11.24075 -6.1475 -1.3522501 62.75
-11.143333 -6.1490002 -1.3523334 63.333336
-11.06175 -6.1489997 -1.3522501 64.25
-10.9575 -6.1634998 -1.3525 64.5
-10.851 -6.1395001 -1.35325 64.5
-10.74775 -6.1305003 -1.3535 63.25
-10.645 -6.1209998 -1.352 62
-9.2084999 -6.1865001 -1.354 70.5
-9.1234999 -6.14575 -1.35375 70.25
-9.0567999 -6.1622005 -1.3546001 72.800003
-8.9677153 -6.1482863 -1.3558573 70.285721
-8.8487501 -6.1485 -1.3548751 67.625
-8.7408342 -6.1690001 -1.3538334 68.166672
-8.6448326 -6.1448336 -1.353 69
-8.5477781 -6.1506672 -1.3533332 69.777779
-8.4411249 -6.1592498 -1.354125 70.25
-8.3541431 -6.1540008 -1.3550001 70.285721
-8.2565002 -6.1442499 -1.3556249 70.625
-8.156332 -6.1500001 -1.3572222 70.777779
-8.0495005 -6.151125 -1.3579999 69.625
-7.9467144 -6.152 -1.3575715 69.14286
-7.8528576 -6.1584287 -1.3568572 71
-7.7556663 -6.1488895 -1.3570001 72.777779
-7.652 -6.1531005 -1.3564 74.800003
-7.5510921 -6.1480002 -1.3566364 76.090912
-7.453125 -6.1500001 -1.3561249 75.75
-7.3558002 -6.1530995 -1.3562 76.900002
-7.2486367 -6.1537275 -1.3560909 77.36364
-7.1515002 -6.1508002 -1.3572001 76.800003
-7.0504546 -6.1523643 -1.3573637 74.909096
-6.9438334 -6.1490002 -1.3575834 76.25
-6.8378997 -6.1478 -1.3576001 75.700005
-6.7471242 -6.151 -1.3579999 75.375
-6.6571999 -6.1535006 -1.3576 75
-6.5580912 -6.1510005 -1.3568183 74.545456
-6.4474621 -6.1501541 -1.3559999 74.615387
-6.3390002 -6.1414161 -1.3555832 75.083336
-6.2508006 -6.1529999 -1.3559999 76.200005
-6.157846 -6.1530771 -1.3559231 75.538467
-6.0494666 -6.1460004 -1.3553998 75.133339
-5.9509997 -6.1524172 -1.3558333 76.166672
-5.8508239 -6.1535883 -1.3565882 77.117645
-5.7453523 -6.151 -1.3594707 80.941177
-5.6492858 -6.1442151 -1.3596427 78.14286
-5.548182 -6.1567273 -1.358909 79
-5.4441543 -6.1488466 -1.3576925 79
-5.345077 -6.1559234 -1.3580002 79
-5.2454672 -6.1469994 -1.3566 79.133339
-5.1451001 -6.1488996 -1.3576502 82.550003
-5.0443501 -6.1531997 -1.3606001 83.950005
-4.9526668 -6.1460838 -1.3605833 81.583336
-4.8507056 -6.1452355 -1.3571767 78.941177
-4.7523575 -6.1465712 -1.3554999 79.785721
-4.6614442 -6.1505551 -1.3554997 79.888893
-4.5542612 -6.147305 -1.358 81.782608
-4.4494786 -6.1537385 -1.3616087 85.869568
-4.350647 -6.1455293 -1.3644706 78.176468
-4.2484999 -6.1459374 -1.3586873 74.9375
-4.141952 -6.1486201 -1.3556186 79.761909
-4.0475597 -6.14292 -1.3577201 82.199997
-3.9457219 -6.1503887 -1.3573333 77.888893
-3.8516927 -6.1494617 -1.3593078 78.46154
-3.7560627 -6.1509376 -1.364125 78.9375
-3.6674445 -6.1547775 -1.3723333 77.777779
-2.3303127 -6.1574998 -1.3549998 84.625
-2.251781 -6.1498437 -1.3544375 85.6875
-2.1496773 -6.1501622 -1.3544514 85.193542
-2.0479665 -6.149601 -1.3549664 85.200005
-1.9495312 -6.1500626 -1.355562 87.03125
-1.8484411 -6.1498818 -1.3561465 85.852943
-1.7485484 -6.1523547 -1.356774 84.387093
-1.6515483 -6.1486449 -1.3573549 84.6129
-1.5504849 -6.1500292 -1.3580005 83.848488
-1.45129 -6.1496134 -1.3574193 84.032257
-1.3959999 -6.1370001 -1.3553333 81.666672
-1.1526668 -6.1459999 -1.3570001 80.666672
-13.559999 -6.0488 -1.3312 177.25
-13.4565 -6.0605001 -1.36375 69.75
-13.373 -6.033 -1.362 59
-13.215 -6.0219998 -1.3559999 59
-13.145 -6.0799999 -1.3535 59.5
-13.04525 -6.0485001 -1.3545001 61
-12.9305 -6.0599999 -1.355 60.5
-12.848333 -6.0506668 -1.3540001 59.666668
-12.7665 -6.0609999 -1.353 60.5
-12.666 -6.0559998 -1.352 60.333336
-12.55225 -6.0562501 -1.3517499 60.25
-12.457667 -6.0396667 -1.3513334 60.333336
-12.351999 -6.0557499 -1.35025 60
-12.228667 -6.0493331 -1.3493333 62
-12.1525 -6.0535002 -1.3494999 62.5
-12.0506 -6.0496001 -1.3502001 63.799999
-11.941999 -6.0516663 -1.3523334 62.333336
-11.853251 -6.05375 -1.3522501 61
-11.761665 -6.0536666 -1.353 61.666668
-11.6574 -6.0589995 -1.3534001 62
-11.5454 -6.0414 -1.3542001 61.799999
-11.445 -6.05475 -1.35475 60.75
-11.34575 -6.039 -1.3540001 60.25
-11.233749 -6.0429997 -1.3522501 61.75
-11.14325 -6.0485001 -1.3512499 63.25
-11.053 -6.05825 -1.3514999 64.25
-10.9458 -6.0504003 -1.3524001 65
-10.848001 -6.039 -1.353 65.25
-10.748 -6.0454998 -1.353 64.5
-10.65225 -6.0534997 -1.352 64
-10.561501 -6.0325003 -1.3517499 64.5
-10.488 -6.013 -1.351 66
-9.0382004 -6.0669999 -1.3542001 69.400002
-8.9411669 -6.0613337 -1.3551668 69.833336
-8.8435011 -6.0383334 -1.3545002 68.833336
-8.745429 -6.0602856 -1.3534286 68.14286
-8.6568336 -6.0526667 -1.3528333 69.333336
-8.5553331 -6.0425558 -1.3534445 71.111115
-8.4486675 -6.0471106 -1.3544445 70.666664
-8.3430004 -6.0582223 -1.3552222 70.333336
-8.2531662 -6.0530005 -1.3559999 70.5
-8.1561108 -6.0469999 -1.3565556 70.666664
-8.0620003 -6.0490007 -1.3570001 69.285721
-7.9535556 -6.0478888 -1.3564445 68.777779
-7.8460002 -6.0502 -1.3559 71.700005
-7.7429004 -6.0486007 -1.3568001 73.400002
-7.6382499 -6.0523748 -1.35675 75.125
-7.5423999 -6.043201 -1.3569001 76.800003
-7.4394441 -6.0556664 -1.3567778 75.777779
-7.340364 -6.0466366 -1.3562727 75.818184
-7.2387009 -6.0535002 -1.3563999 76.400002
-7.1415 -6.0489001 -1.3575001 76.5
-7.0502 -6.0558 -1.3574001 74.5
-6.9485002 -6.0447001 -1.3568001 76
-6.8566666 -6.0511665 -1.3573334 77
-6.7541666 -6.0544167 -1.3573334 75.916672
-6.6507702 -6.0477691 -1.3568463 75.92308
-6.542417 -6.046083 -1.3563335 74.666672
-6.4468002 -6.0500002 -1.3559999 76.300003
-6.3598342 -6.0527496 -1.3559999 76
-6.2499337 -6.0504003 -1.3559998 76.133339
-6.1502504 -6.0454998 -1.3559999 76
-6.0532141 -6.0534291 -1.3557143 75.64286
-5.9518666 -6.0459337 -1.3561333 76.200005
-5.8492007 -6.0562005 -1.3569336 76.400002
-5.7493076 -6.0459228 -1.3580002 77.615387
-5.6476159 -6.0467691 -1.3590001 76.92308
-5.5431542 -6.0503082 -1.3556924 76.692314
-5.4438238 -6.0520592 -1.3561766 80.117645
-5.3450003 -6.0511665 -1.3556666 78.833336
-5.2480621 -6.04775 -1.3549999 79.75
-5.1424451 -6.0450554 -1.356889 82.277779
-5.0404124 -6.0499997 -1.359647 81.941177
-4.9520836 -6.05125 -1.3604999 80.416672
-4.8489995 -6.0484996 -1.3572999 79.400002
-4.7350531 -6.0502105 -1.3553681 80.315788
-4.642684 -6.0491047 -1.3570527 81.789474
-4.5496526 -6.0548692 -1.3589128 82
-4.439105 -6.0495787 -1.3606844 83.368423
-4.3439374 -6.0467505 -1.3631876 82.1875
-4.2460003 -6.0594296 -1.3582145 76.14286
-4.1470385 -6.0543842 -1.358077 83.346153
-4.0499601 -6.0585999 -1.3638799 87.959999
-3.9485197 -6.0520802 -1.3599598 84.599998
-3.8514163 -6.0490832 -1.3559164 81.208336
-3.75212 -6.0385594 -1.35712 82.799995
-3.6529999 -6.0410905 -1.3590454 80.818184
-3.5745001 -6.0225 -1.3575001 77
-2.3131433 -6.0700011 -1.3560001 82.571434
-2.2476785 -6.0486426 -1.354857 83.964287
-2.151032 -6.0502906 -1.3544514 83.967743
-2.0507185 -6.0491867 -1.3547809 84.4375
-1.9498124 -6.0485945 -1.355437 87.0625
-1.8502498 -6.0482807 -1.3561243 86.90625
-1.7492123 -6.0444546 -1.3555756 86.969696
-1.6520001 -6.0491991 -1.3573713 88.285713
-1.5506763 -6.0475006 -1.357412 84.529411
-1.449303 -6.0506968 -1.3572425 86.727272
-1.3728946 -6.0454211 -1.3568949 84.894737
-1.145 -6.0999999 -1.3609999 79
4.2363334 -6.0272226 -1.3437777 86.111115
-13.5711 -5.9456005 -1.33465 175.8
-13.462999 -5.9514999 -1.363 68
-13.3455 -5.96 -1.36 58.5
-13.25 -5.9369998 -1.3559999 58
-13.139 -5.947 -1.3543333 59.666668
-13.027 -5.9560003 -1.352 61
-12.942751 -5.9467502 -1.35325 62.5
-12.8375 -5.9569998 -1.3545001 61
-12.7445 -5.9432502 -1.35375 61
-12.649 -5.9763336 -1.3533334 61.333336
-12.553333 -5.9503336 -1.3536667 61.666668
-12.455 -5.9324999 -1.353 61
-12.341 -5.9735003 -1.351 61
-12.24675 -5.9567499 -1.35 62
-12.15 -5.9475002 -1.3505 63.25
-12.04 -5.95925 -1.3512499 64
-11.93725 -5.9460001 -1.3517499 65.5
-11.853667 -5.9506664 -1.352 65
-11.75575 -5.9567499 -1.3525 63.25
-11.6522 -5.9488006 -1.3532001 63
-11.54 -5.9449997 -1.3543334 62.666668
-11.447 -5.94625 -1.3545001 62
-11.337334 -5.9433336 -1.354 60.333336
-11.263 -5.9586668 -1.3536667 60
-11.14375 -5.9497499 -1.352 62
-11.062 -5.9596672 -1.3516667 63.333336
-10.9585 -5.9484997 -1.3525002 66.166672
-10.83675 -5.9615002 -1.3535 65.75
-10.752251 -5.9502501 -1.353 65.5
-10.6475 -5.9537506 -1.3525001 65.25
-10.56075 -5.9402499 -1.3525001 66.5
-10.4572 -5.9390006 -1.352 67.800003
-10.379001 -5.9500003 -1.3516667 69.666672
-10.292 -5.9169998 -1.353 71
-8.9219999 -5.9775 -1.355 69
-8.8487997 -5.9523997 -1.3548001 69
-8.7473335 -5.9466662 -1.3542223 69.444443
-8.6427498 -5.9592505 -1.3536249 70.875
-8.5482502 -5.9476247 -1.3545001 71.25
-8.4557152 -5.9385715 -1.3552858 71.285721
-8.3530006 -5.9468894 -1.3555554 71
-8.2466002 -5.9556999 -1.3561 70.099998
-8.1431427 -5.9515715 -1.3560001 70.14286
-8.0508747 -5.9538755 -1.3559999 70.5
-7.9637151 -5.9439998 -1.3560001 71.285721
-7.860445 -5.9461112 -1.3556668 73.111115
-7.7634449 -5.9496665 -1.3571111 76.666664
-7.6611009 -5.9541006 -1.3574001 75.300003
-7.554101 -5.9473 -1.3570002 75.300003
-7.4528894 -5.9498892 -1.3567778 75.444443
-7.3527002 -5.9473004 -1.3564 75.400002
-7.2537003 -5.9510002 -1.3559999 76.200005
-7.1619091 -5.9490914 -1.3573637 77.727272
-7.0558333 -5.9534168 -1.3572501 75.916672
-6.9449172 -5.9488335 -1.3568335 77.25
-6.8404541 -5.9429092 -1.3579091 77.272728
-6.7433 -5.9486003 -1.3575001 75.900002
-6.6542001 -5.9520998 -1.3570002 76.200005
-6.5546665 -5.9552498 -1.3565 75.833336
-6.4452853 -5.9502854 -1.3559998 76.071434
-6.3469095 -5.9473634 -1.3560909 76.454544
-6.2607269 -5.951818 -1.3559999 75.909096
-6.1551247 -5.9466877 -1.3558748 76.375
-6.0504999 -5.9473338 -1.3558334 76.166672
-5.948875 -5.9514999 -1.35625 75.8125
-5.854917 -5.9498329 -1.3569168 76
-5.75775 -5.9525628 -1.3567502 76.6875
-5.6586676 -5.9477496 -1.3565834 75.75
-5.5513334 -5.9528008 -1.3551335 76.200005
-5.4575386 -5.9441543 -1.3543077 78.46154
-5.3555269 -5.9492636 -1.3549472 79.368423
-5.2408004 -5.952601 -1.3550497 81.800003
-5.1414375 -5.9549379 -1.3573126 82.5625
-5.0514283 -5.9546437 -1.3580716 81.071434
-4.9555006 -5.946125 -1.3580625 78.6875
-4.8484702 -5.9471765 -1.3562354 77.764709
-4.7423892 -5.9503889 -1.3553886 79.5
-4.6494756 -5.9557619 -1.3579999 81.285713
-4.5437503 -5.9514003 -1.35895 79.75
-4.4425001 -5.9517503 -1.3592998 83.150002
-4.3453498 -5.9485507 -1.3608 83.650002
-4.2463121 -5.9500632 -1.3564999 77.5
-4.1523995 -5.94945 -1.3549498 79.75
-4.0607615 -5.9499526 -1.3596667 84.380951
-3.9493332 -5.9571671 -1.3622779 82.5
-3.8458426 -5.9487896 -1.3577896 82.684212
-3.7549565 -5.9554353 -1.3593479 84.260872
-3.656667 -5.9525185 -1.3614814 84.814812
-3.5591736 -5.9526091 -1.3592174 83.478264
-3.4979999 -5.9190001 -1.357 84
-2.24208 -5.9547596 -1.3549197 81.759995
-2.1508479 -5.9487276 -1.3544847 83.484848
-2.0495 -5.9514418 -1.3550292 84.617645
-1.9497647 -5.9488239 -1.3555877 87.882355
-1.8480003 -5.9501147 -1.3562565 89.51429
-1.7489141 -5.9488583 -1.3571709 90.485718
-1.6504858 -5.9522862 -1.3583145 90.800003
-1.5496668 -5.9496942 -1.3580281 89.25
-1.4497225 -5.9519157 -1.3577505 87.416664
-1.3553635 -5.94803 -1.3571512 84.969696
-1.293 -5.901 -1.3559999 84
4.161273 -5.9466367 -1.3507274 87.090912
4.2353334 -5.9425559 -1.3314445 84.444443
-13.604401 -5.8271999 -1.3142 221.2
-13.578846 -5.8560009 -1.3406924 157
-13.442667 -5.8490005 -1.3609999 66
-13.327 -5.8920002 -1.359 58
-13.232333 -5.8499999 -1.3546667 59.333336
-13.152 -5.8439999 -1.354 60
-13.051666 -5.8486667 -1.354 61
-12.946751 -5.8505001 -1.35375 61.75
-12.834333 -5.8479996 -1.3543334 62.333336
-12.7535 -5.8600001 -1.355 62
-12.665 -5.8482499 -1.3545001 60.75
-12.539001 -5.8473334 -1.353 60
-12.434999 -5.8464999 -1.352 60.5
-12.34075 -5.8592501 -1.352 61.75
-12.233667 -5.8493338 -1.3513334 63
-12.1495 -5.8385 -1.351 63.5
-12.050751 -5.8517499 -1.35075 65.5
-11.9635 -5.8470001 -1.3525 65.5
-11.856501 -5.8590002 -1.3522501 65.5
-11.759501 -5.848 -1.3535 67
-11.658 -5.8525 -1.35475 66.25
-11.5488 -5.8488002 -1.355 64.200005
-11.455 -5.8590002 -1.355 62.666668
-11.36425 -5.8579998 -1.35475 61.75
-11.247999 -5.8604999 -1.353 60.75
-11.153666 -5.8590002 -1.3516668 61.333336
-11.057001 -5.8582501 -1.351 63
-10.953667 -5.8391666 -1.3518336 64.666672
-10.8528 -5.868 -1.3534001 65.400002
-10.7474 -5.8492002 -1.3538001 65
-10.638599 -5.8491998 -1.3532001 65.599998
-10.533 -5.8535995 -1.3526001 67.200005
-10.453751 -5.85425 -1.3527501 68.25
-10.347286 -5.8460002 -1.353 69.14286
-10.241401 -5.8576002 -1.3540001 70.599998
-10.156 -5.8305001 -1.3547499 69.5
-8.748333 -5.8689995 -1.3543333 69.333336
-8.6503744 -5.8507495 -1.3545001 69.125
-8.5364294 -5.8524294 -1.3547143 69.428574
-8.4452868 -5.8547149 -1.355143 69.428574
-8.3605719 -5.8405714 -1.3558571 70
-8.2565556 -5.8468885 -1.3563334 71.222221
-8.1501112 -5.8487782 -1.3562222 71.777779
-8.0408001 -5.8532004 -1.3563 72.5
-7.9365559 -5.8548889 -1.3566667 73.888893
-7.8426995 -5.8535995 -1.3573 75.800003
-7.7463336 -5.8562226 -1.3582221 77.111115
-7.652 -5.8470912 -1.3581818 76.36364
-7.5491114 -5.8473339 -1.3573334 75.888893
-7.4563336 -5.8492222 -1.3567778 75.333336
-7.3537269 -5.8476362 -1.3560909 75.818184
-7.248167 -5.8491669 -1.3568333 77.5
-7.1519008 -5.8463001 -1.3576 77.200005
-7.0472732 -5.8485451 -1.3573637 76.818184
-6.9484549 -5.8499093 -1.3573638 78.36364
-6.8590002 -5.8488183 -1.3579091 78.454544
-6.7603335 -5.8561668 -1.3575834 76.083336
-6.6490002 -5.8506155 -1.3564615 75.538467
-6.5466161 -5.8473086 -1.3559999 76.384621
-6.452455 -5.8470912 -1.3562727 76.818184
-6.3503342 -5.8586669 -1.3559998 75.733337
-6.2485385 -5.8450003 -1.3559999 75.307693
-6.1561999 -5.8504 -1.3559 75.700005
-6.0541177 -5.8507648 -1.3559997 76.470589
-5.9545836 -5.8542509 -1.3563333 76
-5.8523884 -5.8485556 -1.3565555 75.722221
-5.7495837 -5.8538337 -1.3564167 76.333336
-5.6521878 -5.8507495 -1.3552496 76.125
