# .PCD v0.7 - Point Cloud Data file format
VERSION 0.7
FIELDS x y z intensity
SIZE 4 4 4 4
TYPE F F F F
COUNT 1 1 1 1
WIDTH 1278
HEIGHT 1
VIEWPOINT 0 0 0 1 0 0 0
POINTS 1278
DATA ascii
-1.3521044 5.8615208 0.68635416 190.33334
-1.2523334 5.8650818 0.68668759 196.9375
-1.1527609 5.8691316 0.68652177 200.84782
-1.0511277 5.8730631 0.68763828 206.63829
-0.95093173 5.8767281 0.68720454 204.77274
-0.85200006 5.8801956 0.68795121 209.2439
-0.7518571 5.8842864 0.68899995 216.35715
-0.65102571 5.8885646 0.68915385 214.51282
-0.54964864 5.8931351 0.68983775 219.54054
-0.45121434 5.896143 0.69125009 232.21429
-0.38250002 5.8984003 0.69250005 232.10001
1.444087 5.8502178 0.63108701 81.95652
1.7120669 5.8484674 0.61146671 80.066673
1.8523334 5.8499999 0.60100007 60.666668
2.694 5.8969998 0.66100001 60
7.6192451 5.8486671 0.65098238 144.82457
8.4960003 5.882 0.61900002 71
8.580224 5.8507218 0.64885181 151.03703
-3.0446429 5.9497142 0.61464286 119.07143
-2.9443507 5.94314 0.64471936 87.578949
-2.8460667 5.9429336 0.67753339 75.600006
-2.7456362 5.9508185 0.67763638 74.909096
-2.6588891 5.9499993 0.67755556 75.555557
-2.5526249 5.945375 0.67675 77.0625
-2.4527333 5.9542007 0.6765334 78.800003
-2.3430667 5.9500008 0.67693347 80.133339
-2.2405336 5.9505334 0.67660004 78.733337
-2.1415715 5.9521427 0.67657149 79.071434
-2.0442352 5.9566469 0.67705882 79.764709
-1.9498003 5.9558673 0.67759997 81.000008
-1.8494668 5.9587998 0.67753339 79.800003
-1.7594668 5.9547343 0.67746663 80.53334
-1.6606668 5.9493346 0.67773324 82.333336
-1.5594704 5.9503531 0.6780588 85.705879
-1.456647 5.9525294 0.67788237 85.764709
-1.355 5.9517498 0.67768747 86.1875
-1.2525001 5.9493122 0.67756242 86.375
-1.1497059 5.9470582 0.67729408 89.058823
-1.0494705 5.9478235 0.67770588 92.117645
-0.94655544 5.9483333 0.67794442 93.111115
-0.85038894 5.9439445 0.67822212 96.777779
-0.75329995 5.9390502 0.67794991 102.7
-0.65366668 5.9428096 0.67809516 100.52381
-0.55228001 5.9374399 0.67811996 110.52
-0.44993544 5.9314184 0.67822576 128.32257
-0.34357151 5.9197145 0.6831429 167.20407
-0.2500357 5.9202504 0.68525004 180.75002
-0.15164407 5.9245248 0.68511844 180.42374
-0.049592592 5.929462 0.68561095 178.66667
0.041492309 5.9326 0.68643075 179.8
0.14793749 5.938417 0.68752086 178.66667
0.24964589 5.9422712 0.6884582 180.64584
0.35215911 5.9474087 0.68838626 176.61365
0.45064285 5.9506907 0.68892848 174.42857
0.54771805 5.9549236 0.68897438 178.61539
0.64785713 5.9586673 0.68995237 184.02382
0.7508719 5.964283 0.68966669 178.74359
0.85116667 5.9673061 0.69002771 177.33333
0.9514848 5.9703941 0.69075769 180.8788
1.049484 5.9749026 0.69051611 177.32257
1.1471379 5.9792409 0.69162071 185.44827
1.2492592 5.983593 0.69277775 194.22223
1.3687025 5.9792132 0.66040534 165.05406
1.4250395 5.972158 0.65153962 120.48684
1.5276875 5.9764371 0.6895625 145.4375
1.7096364 5.957727 0.61036366 79
1.849 5.9176669 0.60300004 59
2.4742725 5.9793634 0.6069091 121.63637
2.557436 5.9780769 0.61458975 182.66667
2.6527596 5.9703341 0.62782651 189.78667
2.7512088 5.9747372 0.63418686 202.65935
2.8499634 5.9850435 0.64346647 221.88573
2.9483402 5.9884839 0.64915389 230.52307
3.0443618 5.9922481 0.65017158 229.7524
3.1029999 5.9959998 0.69800001 104
7.6122642 5.9500713 0.65033334 141.78947
8.5781555 5.9520001 0.66465622 186.1875
-3.0487857 6.0459294 0.61478567 113.42857
-2.9480357 6.0460005 0.63275015 84.785721
-2.3175001 6.0054998 0.67550004 78.5
-2.2484999 6.0057497 0.67575002 77.25
-2.0405002 6.007 0.676 78
-1.9654999 6.0097499 0.67724997 79
-1.816 6.007 0.676 76
-1.7564 6.0074 0.67679995 77.200005
-1.6574999 6.0127501 0.67774999 78.25
-1.5441251 6.0193748 0.67737496 81.625
-1.440889 6.0215554 0.67766666 81.222221
-1.3542 6.0233998 0.67769998 80.700005
-1.2461112 6.0227776 0.67811108 80.222221
-1.1456668 6.0165005 0.67799997 80.166672
-1.0532501 6.027 0.6780833 81.666672
-0.94993752 6.0370002 0.6780625 82.25
-0.84866661 6.0408883 0.67794442 83.222221
-0.75089473 6.0407367 0.67784202 82.578949
-0.6606667 6.0475335 0.67826664 80.733337
-0.54691672 6.0360827 0.6780833 83.25
-0.45241666 6.0380831 0.67774999 83.5
-0.34427273 6.0384545 0.67818183 83.36364
-0.2502 6.0431333 0.67873329 83.066673
-0.15258333 6.0448332 0.67874998 84.166672
-0.047153845 6.047616 0.67946148 80.46154
0.047631573 6.0508428 0.68115789 81.473686
0.15769231 6.0523081 0.68215388 82.230774
0.24921054 6.0590529 0.68263161 83.789474
0.34994447 6.0533891 0.68288881 84.111115
0.45094118 6.0535889 0.68358821 84.058823
0.55164707 6.0482941 0.68323529 86.823532
0.65176463 6.0537643 0.68341172 86.764709
0.7488125 6.0536256 0.68362498 84.625
0.84981251 6.0464377 0.68368745 86.375
0.9501667 6.0457778 0.68411124 88.611115
1.0475 6.0469375 0.68456256 90.6875
1.1510556 6.0501666 0.68511122 93.277779
1.2650279 6.0819817 0.65114158 173.63208
1.3308003 6.0829434 0.64821094 173.68889
1.4666799 6.0368395 0.67612004 97
1.562 6.0190001 0.69099998 78
1.7064002 6.0542998 0.61389995 75.5
2.4489999 6.0170002 0.60549998 67
2.5488 6.0043998 0.62860006 80.400002
2.868 6.0051665 0.69333333 79.333336
3.099 6.006 0.69700003 104
3.1617854 6.0787868 0.65734273 186.81429
3.2455175 6.0860171 0.66565514 166.22414
3.3456051 6.0896583 0.66657883 177.89474
3.4438217 6.0915351 0.67325002 181.53572
3.5484002 6.0913997 0.69430006 194.3
3.641 6.0937495 0.69525003 199.25
3.7488892 6.0956669 0.69599998 202.55556
3.8330002 6.098 0.69700003 208.5
7.607512 6.0374322 0.64605403 136.54054
8.5798588 6.0212855 0.6665715 204.92857
8.6235008 6.0425 0.62950003 88
-3.059 6.1079998 0.60699999 131
-2.9527502 6.1478329 0.63025004 84.458336
-0.012 6.1009998 0.68000001 81
0.092 6.1020002 0.68199998 81
0.18000001 6.1065001 0.68199998 82
0.23800001 6.1059999 0.68199998 82
0.34259999 6.1110001 0.68180001 80.200005
0.4552857 6.1161432 0.68257147 79.857147
0.54776925 6.1241546 0.68230772 80.846153
0.64923084 6.1266155 0.68246156 80.538467
0.74840003 6.1222997 0.68360007 80.200005
0.84691662 6.1260009 0.68408334 79.75
0.95050007 6.1488886 0.68433338 78.666664
1.0486112 6.1402783 0.68416673 81.333336
1.1674532 6.1346073 0.66198432 86.109375
1.225049 6.1215577 0.64155746 79.885239
1.3619999 6.1283998 0.65100002 111.6
1.4565334 6.1608005 0.65806675 79.800003
1.5 6.1290002 0.68199998 80
1.698 6.1929998 0.602 69
1.7052001 6.1414003 0.60760003 80.5
3.1906369 6.1003633 0.62363636 238.9091
3.257509 6.1026511 0.63343853 226.19298
3.3520403 6.1063776 0.64395934 220.63515
3.4496117 6.1098475 0.64252931 215.55295
3.5488973 6.1127276 0.64573735 205.51515
3.6505296 6.1177897 0.64552993 203.40999
3.7501981 6.1225104 0.64664584 200.89584
3.8495748 6.1253624 0.65040404 197.61617
3.94995 6.1306043 0.64965338 194.81187
4.0503263 6.1358852 0.65196842 195.70528
4.1482344 6.1409683 0.65019155 197.12766
4.2483482 6.1459799 0.65117896 195.76843
4.3496804 6.151979 0.65005487 192.24176
4.4497824 6.1565175 0.65049416 191.65517
4.549046 6.1604319 0.65153414 191.11365
4.6489172 6.1642394 0.6507262 184.59525
4.7504282 6.1699629 0.64905953 191.2262
4.8506832 6.1750498 0.65065819 193.40508
4.948545 6.1791816 0.64946759 191.71428
5.0481839 6.1839728 0.65099996 186.72368
5.1454797 6.1877837 0.65372479 183.53624
5.2477369 6.1866579 0.66468418 167.26315
5.3492913 6.1889029 0.66674203 160.70967
5.4468946 6.1874738 0.68157893 183.21053
5.5546923 6.188385 0.6901539 190.30769
5.6538005 6.1900001 0.69190001 186.3
5.7443752 6.1932507 0.69275004 188.75
5.8435559 6.1950002 0.69300008 184.77779
5.9415998 6.1961999 0.69360006 187.8
6.0019999 6.1989999 0.69599998 184
7.4747491 6.1819997 0.646375 91.125
7.5661488 6.1673708 0.63029623 99.59259
7.6324377 6.1396871 0.63406247 97.375
-2.9576156 6.2483459 0.63030773 83.807693
0.95099998 6.204 0.68300003 75
1.135 6.2020001 0.68400002 74
1.2436666 6.221889 0.60700005 103.88889
1.386 6.276 0.60000002 72
1.4065002 6.2506881 0.62343752 79.3125
1.697 6.2492499 0.61150002 66
1.7021999 6.2304001 0.61519998 71.599998
5.1837502 6.2010002 0.62200004 206.75
5.2558532 6.2037354 0.63617659 194.20589
5.3519502 6.2073002 0.63735002 182.3
5.4535489 6.2106285 0.63962752 186.07845
5.5492883 6.2137294 0.64288467 183.21155
5.647254 6.2174549 0.64272708 181.43636
5.7486897 6.2211037 0.64332759 182.03448
5.8490376 6.2255177 0.64451855 179.24074
5.9500513 6.2288418 0.64550877 175.64912
6.0512376 6.2312546 0.65022039 170.16949
6.1478405 6.2358923 0.65153569 175.83929
6.2466726 6.2413964 0.65031028 175.48276
6.350122 6.2467031 0.64994735 175.7193
6.4496737 6.2522311 0.64973098 176.28847
6.5492506 6.2562494 0.6504643 178.21429
6.6513996 6.26088 0.65076005 177.45999
6.7492809 6.2648792 0.64988005 171.37999
6.8496609 6.2696161 0.65112764 169.70212
6.9498997 6.2739015 0.65121984 171.48
7.0499992 6.2801733 0.64952177 168.84782
7.1496434 6.2850895 0.65140003 171.57779
7.2471213 6.2866373 0.66030306 165.33334
7.3496819 6.2798185 0.66927278 158.95454
7.4390268 6.2466216 0.66027027 114.24325
7.561657 6.2520561 0.63914293 112.25714
7.6513076 6.2573853 0.68123078 123.30769
7.7564163 6.2699165 0.68449998 135.16667
7.8429999 6.27775 0.68537503 137.75
-2.9641428 6.3524294 0.62975013 80.75
1.388 6.359334 0.60366666 68
1.4252001 6.3429995 0.67159998 98.26667
1.694 6.3309999 0.62099999 61
1.7049999 6.3249998 0.61500001 63
7.2605462 6.3016357 0.62072736 186.18182
7.353435 6.304131 0.63530427 174.43478
7.4408565 6.3085241 0.63171422 171.61905
7.5411544 6.314693 0.61453849 162.69231
-2.9676666 6.4460378 0.62644452 79.259262
-2.9704499 6.5454497 0.62695003 83.200005
-2.974684 6.6422629 0.62873691 82.947372
-2.9803684 6.7445793 0.62926322 81.578949
-2.9871581 6.8529472 0.62936842 80.947372
-2.9924121 6.9543529 0.62935293 80.764709
1.413 6.9320002 0.65399998 98
2.3970001 6.9860001 0.60100001 96
-3.0025001 7.0585003 0.6505 77
-2.9960771 7.0504622 0.62638462 81.92308
2.3954999 7.0249996 0.60100001 123.5
-3.0033636 7.1617274 0.63318181 79.454544
-2.9988573 7.1265721 0.62600005 83
2.098 7.1869998 0.60399997 67
2.1043336 7.1413336 0.60500002 65.666672
-3.0068002 7.2530675 0.63086665 79.200005
2.0928333 7.2655005 0.60683334 68
2.1010001 7.2649999 0.61500001 66
2.3840001 7.2636671 0.60466671 70.666672
-3.0095458 7.3408194 0.62545455 79.454544
2.0871248 7.3604999 0.61212498 71.75
2.3873334 7.3473334 0.60766667 77
-3.0156002 7.4428992 0.62219995 79.400002
2.0824547 7.4498181 0.61809093 75.36364
2.39275 7.4514999 0.60675001 77
-3.0219998 7.552546 0.62245452 79.36364
2.0799165 7.546083 0.62175 77.5
2.3843751 7.5477505 0.60949999 92.625
-3.026222 7.6565552 0.62233335 82
2.0776432 7.6485715 0.62649995 75.571434
2.37375 7.6467505 0.60837495 95.75
-3.0298893 7.7578888 0.62033331 79.666664
2.0765002 7.7507148 0.62849998 75.785721
2.3675001 7.7471666 0.60716665 98.833336
-3.0346999 7.8538003 0.62200004 87
2.0737333 7.8574677 0.6274001 75.666672
2.3618574 7.8445716 0.6077143 93.857147
-3.0375001 7.947 0.61850005 77.666672
2.0695 7.9477997 0.62180001 76.200005
2.118 7.9580002 0.67400002 78
2.3554285 7.9478579 0.60671425 95.571434
-3.289 8.0384998 0.65750003 59
-3.0460002 8.0537996 0.62000006 76.599998
2.0825 8.0050001 0.6365 74.5
2.3364286 8.0257149 0.6065715 90.285721
-3.3099999 8.1494999 0.66100001 61.5
-3.0522001 8.1435995 0.61899996 77.200005
-3.3130002 8.2460003 0.66050005 69
-3.0568337 8.2450008 0.62150002 79
-9.1186666 8.3886671 0.67066669 83.333336
-3.2909999 8.3889999 0.65499997 76
-3.0611668 8.3526669 0.62150002 79.666672
-9.118 8.4020004 0.68900001 71
-3.0648 8.4552002 0.62260002 78.200005
-9.1409998 8.5950003 0.60799998 93
-3.2850001 8.5939999 0.68699998 75
-3.0699999 8.550601 0.62 76.599998
-9.1425867 8.6438837 0.64647061 133.35294
-3.2983336 8.6723347 0.67700005 70.666672
-3.0757499 8.6442499 0.62199998 77.25
2.3139999 8.6960001 0.60000002 77
-9.1468573 8.7975721 0.64800006 146.28572
-3.3134999 8.7504997 0.65649998 63.5
-3.0824001 8.7432003 0.62259996 76.400002
2.2939999 8.7510004 0.61900002 68
2.3113334 8.7573338 0.60400003 87
-9.1478329 8.8537073 0.65041673 147.41667
-3.3216667 8.8686676 0.66833341 74.666672
-3.089 8.8484993 0.62475002 79
2.3125 8.8601665 0.61533332 102.16667
-3.31725 8.93925 0.67475003 84.5
-3.0935001 8.9417496 0.62524998 81
2.3101761 8.9680586 0.6374706 122.58823
-9.6669998 9.0900002 0.69400001 68
-3.3092859 9.040144 0.6691429 86.14286
-3.0962 9.0423994 0.62360001 78.599998
2.3073888 9.0574999 0.65094453 130.44444
-3.3050001 9.1610003 0.65100002 72
-3.102 9.1719999 0.61900002 75
-3.0986667 9.1356668 0.62600005 78
2.2928331 9.1431122 0.6483888 95.222221
2.3014445 9.1067781 0.64999998 197.33333
-3.3065 9.2199993 0.64999998 67
-3.1066666 9.2496672 0.62400001 75.333336
2.2875772 9.2442312 0.64626914 92.576927
-3.3169999 9.3050003 0.653 67
-3.1133335 9.3336668 0.62533337 73.333336
2.2831669 9.3482227 0.64944446 93.055557
-3.3305001 9.4350004 0.65499997 68.5
-3.1195002 9.4379997 0.6225 75
2.2776318 9.4471054 0.63973689 93.263161
-3.336 9.5265007 0.65649998 72
-3.125 9.5335007 0.62300003 76.5
2.2727501 9.5515013 0.64784998 92.75
-3.3343334 9.6583328 0.65433335 79
-3.1287498 9.6587496 0.62575001 78.25
2.2679374 9.6539993 0.64537495 93
-3.329 9.7220001 0.653 78
-3.1323335 9.7703333 0.62666667 77
2.2641177 9.7489405 0.64776468 93.294121
-3.14025 9.8739996 0.62924999 77.75
2.2596872 9.8479366 0.64543754 90.875
-3.1407502 9.9622498 0.63050002 93.25
2.2556877 9.9447489 0.64674997 90.25
-3.1535001 10.068501 0.63349998 75
1.353 10.098 0.68199998 72
2.095 10.085 0.67299998 70
2.1155 10.087999 0.67700005 66.5
2.253 10.020625 0.64737493 97.75
-3.35725 10.13625 0.67025 73.5
-3.1585 10.1515 0.63349998 76.25
1.2730001 10.1115 0.69116676 83.666672
1.3424546 10.109273 0.6906364 85.727272
1.4581428 10.117429 0.68714291 79
1.5519373 10.134812 0.68568748 76.625
1.6437333 10.1376 0.68860006 75.866669
1.7522001 10.130199 0.69029999 75.900002
1.851143 10.139357 0.68764293 75.14286
1.9511817 10.140727 0.6899091 76.636368
2.0453999 10.149 0.68833333 78.466667
2.1481249 10.147875 0.69175005 78.625
2.2499545 10.145317 0.66231811 120.81818
-3.3570001 10.2476 0.67199999 84.200005
-3.1626668 10.247667 0.63166666 75.333336
1.592 10.222 0.671 54
1.6110001 10.2155 0.67500001 57
2.039 10.201 0.67699999 62
2.2472355 10.238412 0.65117651 114.76471
-3.3482499 10.34725 0.65250003 81.75
-3.1645 10.355 0.62599999 75.5
2.2472501 10.338417 0.63958335 115.58334
-3.1665001 10.455999 0.62599999 73
2.242923 10.436617 0.64184618 115.23077
-3.171 10.54 0.62400001 70
2.2370002 10.533934 0.64806676 115.73334
-3.358 10.628 0.65200001 70
-3.1775 10.6355 0.6275 71
2.229929 10.633715 0.64492863 125.57143
-3.1849999 10.736 0.62900001 71
2.2224288 10.73243 0.64585716 127.00001
-3.3870001 10.864 0.65799999 69
-3.2149999 10.860001 0.62099999 64
-3.1925001 10.8345 0.63099998 71.5
2.2152145 10.834573 0.64621431 108.21429
-3.3842502 10.9625 0.66400003 83.25
-3.207 10.934999 0.61900002 76.5
-3.1963334 10.957 0.62599999 79
-3.369143 11.048572 0.67085713 92.857147
-3.1930001 11.04 0.62950003 75.5
-3.3579998 11.129001 0.66766667 73.333336
-3.1876667 11.152334 0.6323334 71.333336
-3.1950002 11.257999 0.63450003 67
1.763 11.273001 0.69850004 60
2.27775 11.257 0.65775001 79.625
-3.2063332 11.362 0.62466669 66
-3.1989999 11.301 0.61299998 59
1.6884999 11.3555 0.69300002 61
1.735 11.341166 0.69083333 61.5
2.274308 11.34454 0.64838463 81.615387
-3.211 11.454 0.62199998 63.5
1.6818001 11.458001 0.6868 63.600002
1.7264 11.440599 0.67699999 59
2.0550001 11.477805 0.66377419 83.580643
2.1059999 11.485 0.66733336 73.666672
2.2697778 11.448777 0.65988892 76.444443
-3.217 11.549 0.62233335 63
1.6761429 11.535287 0.67528576 64.714287
1.7244999 11.546999 0.66275001 58.75
1.873778 11.592444 0.68077785 104.66666
1.911 11.599 0.69599998 77
2.0370626 11.519063 0.61981249 76.5625
2.11025 11.515499 0.63425004 68.75
2.2685833 11.546333 0.64666677 80.416672
-5.8115001 11.6575 0.69200003 155
-5.7503333 11.662833 0.6886667 165.16667
-5.6513333 11.667111 0.68844444 165
-5.5488753 11.672 0.68574995 159.625
-5.4521246 11.671249 0.68874997 175
-5.3600001 11.674666 0.68900001 176.5
-5.2503333 11.679334 0.68833333 176
-5.1467776 11.684332 0.68711114 175.44444
-5.0482855 11.685573 0.68671435 176.85715
-4.949625 11.687625 0.68699998 176.125
-4.8524446 11.691 0.68655556 174.33333
-4.7550001 11.694555 0.68455559 163.88889
-4.677 11.69375 0.68175 151
-4.5450001 11.6925 0.67400002 120
-4.4359999 11.695 0.67400002 115
-4.3415003 11.688 0.671 108
-4.118 11.691 0.67000002 95
-3.9095001 11.680832 0.64858335 241.75
-3.8449998 11.681803 0.65050006 251.075
-3.7498949 11.686002 0.64942104 247.07895
-3.6504474 11.681369 0.64776313 205.13158
-3.5519378 11.692839 0.63321877 233.25
-3.4436157 11.684502 0.63523072 189.42308
-3.3818336 11.693834 0.62349999 209.5
-3.240833 11.662333 0.6415 71.166672
1.6719999 11.628833 0.66183329 61.666668
1.7234001 11.640399 0.64519995 57.400002
1.8478236 11.624825 0.64085299 91.882355
1.9107777 11.625889 0.63744444 70.444443
2.0035999 11.646001 0.62440002 74.800003
2.2438533 11.679353 0.65032351 120.26471
-4.634572 11.701429 0.68828577 175.28572
-4.5456252 11.70475 0.68799996 175
-4.449111 11.708777 0.68822223 175.77779
-4.345778 11.711888 0.68833333 177
-4.2542224 11.715668 0.68733335 174.22223
-4.1557002 11.721499 0.68869996 177.8
-4.0541 11.724599 0.68659997 165.7
-3.9676666 11.723666 0.6875 162.5
-3.553 11.704401 0.67099994 128.40001
-3.3561537 11.731655 0.65688467 124.15385
-3.2464001 11.760001 0.67429996 157.40001
-3.1560001 11.775916 0.68266666 164
-3.0457692 11.778308 0.68407691 175.38463
-2.9498181 11.785545 0.68354547 172.09091
-2.8520832 11.790084 0.68641657 187.33334
-2.7535 11.792624 0.69200003 215.5
-2.6660001 11.796499 0.69283336 220.33334
-2.599 11.798 0.69800001 235
1.6697501 11.748749 0.64687502 60
1.7179999 11.741 0.63833338 56.333336
1.8130001 11.736667 0.61833334 70
1.9985 11.7575 0.62150002 75
2.003 11.7395 0.62199998 68
2.1833572 11.732714 0.65157145 125.64286
2.2010002 11.700834 0.6491667 141.5
-3.32725 11.83875 0.61425 80.25
-3.2320001 11.841375 0.6415 82.875
-2.8334999 11.833 0.67199999 101
-2.7496669 11.820333 0.67600006 131.16667
-2.6373334 11.8195 0.67799997 149.16667
-2.5513334 11.810917 0.68466663 184.66667
-2.4507275 11.817183 0.68454546 174.27274
-2.3507695 11.819385 0.68638462 182
-2.2524288 11.827214 0.68571436 182.92857
-2.1500835 11.831584 0.68491668 189
-2.0509231 11.834691 0.68584621 195.07693
-1.9506363 11.842273 0.68454546 187.36365
-1.8531334 11.846334 0.68686676 195.66667
-1.7489285 11.856071 0.68435711 184.92857
-1.6513335 11.859668 0.68239993 178.8
-1.5532001 11.8673 0.67975008 167.95
-1.4492778 11.871778 0.6800555 168.16667
-1.3493887 11.873723 0.67938882 165.22223
-1.2572501 11.883814 0.68106252 164.125
-1.1470909 11.886638 0.68781823 193
-1.0505556 11.891223 0.68888885 198.77779
-0.95199996 11.894572 0.68942857 207.14287
-0.847 11.897287 0.69442862 229.42859
1.1675453 11.878514 0.65036362 120.78788
1.22835 11.87565 0.64950001 111.85
1.3655556 11.89461 0.6558333 140.77779
1.4890002 11.852751 0.64866674 95.083336
1.5190715 11.84943 0.64835721 94.428574
1.6667143 11.859429 0.63428575 60.57143
1.7250001 11.8565 0.62450004 55.75
1.8128333 11.849166 0.62366664 71.5
1.9942501 11.847 0.61475003 71.25
2.0050001 11.842 0.64750004 77.5
2.1726 11.8092 0.62459999 100.8
-3.32725 11.9545 0.61500001 78.75
-3.2309999 11.926333 0.63333338 84.333336
-1.971 11.904 0.671 98
-1.6303333 11.915668 0.65866673 76.666672
-1.559 11.915 0.66000003 88
-1.4673333 11.911334 0.65900004 73.333336
-1.24 11.9125 0.66499996 87.5
-1.1434286 11.916714 0.66885716 101.28572
-1.046625 11.921375 0.66925001 107.5
-0.9488889 11.914556 0.67277783 125.44444
-0.84827268 11.914638 0.67509097 141.81819
-0.74893337 11.913068 0.67999995 170.8
-0.65205556 11.914224 0.68077785 177.38889
-0.54906249 11.916501 0.68343747 188.125
-0.45138463 11.924232 0.68200004 178.53847
-0.35143748 11.930375 0.6821875 181.8125
-0.24860002 11.933534 0.68440002 189.86668
-0.15016666 11.940332 0.68291676 188.16667
-0.054937493 11.944937 0.68412501 192.125
0.042300001 11.95065 0.68515003 187.55
0.14633334 11.958735 0.68413335 178.00002
0.24750003 11.964168 0.68400002 180.5
0.34326673 11.968801 0.68466675 185.13335
0.45085716 11.972857 0.685 178.57144
0.54891664 11.976252 0.68675011 174.08334
0.64064294 11.977786 0.6854285 173.78572
0.75323069 11.98277 0.68700004 183.53847
0.85088897 11.98489 0.68800002 191.55556
0.95370001 11.988001 0.68870002 190.10001
1.0417501 11.991749 0.69087499 194.875
1.1243334 11.980166 0.66433334 131.16667
1.2690001 11.987 0.68900001 86
1.35335 11.920199 0.64360005 94.700005
1.401 11.935 0.61199999 69
1.6583333 11.961417 0.63375002 66.75
1.7183332 11.950999 0.61200005 57.333336
1.8113334 11.957001 0.63616669 73.166672
1.9916668 11.945499 0.62100005 71.666672
2.0304999 11.990499 0.671 90
-3.3264999 12.039 0.61399996 78.5
-3.2423332 12.046667 0.63 73.333336
0.588 12.001 0.66900003 90
0.67933339 12.01 0.671 105
0.74379998 12.023601 0.66839999 95
0.84671432 12.019428 0.67028576 102.57143
0.94750005 12.023499 0.67087507 103.375
1.0458572 12.036715 0.67471433 101.71429
1.1203334 12.018001 0.66900003 100.66667
1.2850001 12.02525 0.67825001 108
1.3112857 12.030715 0.66028577 126.14286
1.4535 12.026333 0.68083334 154.16667
1.5788751 12.029625 0.67987496 166.125
1.6406666 12.036389 0.66100007 121.83334
1.7562501 12.045501 0.60874999 65.25
1.8358334 12.033333 0.67300004 89.5
1.9890001 12.039667 0.62133336 64.333336
2.0395 12.0456 0.68580002 111.4
-3.2409999 12.1455 0.62599999 75
1.1245 12.15 0.61049998 62
1.63475 12.146749 0.62050003 65
1.7912 12.139199 0.61860001 65.200005
1.844 12.137501 0.68800002 64
2.1110001 12.14 0.69 83
-3.2405 12.2345 0.62450004 72.75
1.0835626 12.283312 0.64168751 135.125
1.115 12.25375 0.63424999 75
1.6299999 12.256749 0.61825001 72.25
1.7725 12.2355 0.60350001 56
-3.2390001 12.323 0.61500001 63
1.1210001 12.361 0.60799998 71
1.312 12.39 0.602 65
1.6198 12.3764 0.61840004 78.800003
-3.247 12.416 0.63499999 66
1.614 12.401 0.63700002 77
1.3477499 12.651751 0.65625 80.75
1.5394001 12.649699 0.65469998 82.400002
0.73933333 12.788 0.69666666 84.666672
0.86900002 12.794 0.69800001 84
0.97199988 12.793938 0.67112494 88.9375
1.0557728 12.7705 0.6694091 85.454552
1.1795 12.782999 0.68225002 79
1.379143 12.737 0.67657149 70.714287
1.403 12.783 0.69700003 72
1.546625 12.762626 0.68075001 66.375
1.696 12.785 0.69700003 85
0.76466674 12.828001 0.67608333 83.083336
0.84514284 12.820906 0.66942853 87.095238
0.92300004 12.8078 0.66729999 89.300003
1.015 12.8 0.648 79
1.1388 12.846801 0.63959998 70.400002
1.526 12.863 0.62900001 57
1.684 12.819 0.69400001 61
1.7135 12.852 0.68599999 66
1.109 12.951 0.60799998 71
1.085 13.474 0.602 67
1.118 13.461 0.66100001 66
-3.4459999 13.561 0.66324997 81
0.95633334 13.572668 0.67833328 84.333336
-3.444 13.66 0.653 70
0.92400002 13.605 0.67400002 78
-3.4749999 14.08 0.65700001 72
-3.4760001 14.161 0.653 75
-3.471 14.22 0.65600002 79
1.057 14.487 0.60299999 73
1.149 14.487 0.66000003 86
1.046 14.596 0.60500002 67
1.17 14.526 0.68599999 82
1.077 15.1535 0.66333342 100.16667
1.1073334 15.174334 0.67033339 89.333336
-3.6500001 15.722 0.685 69
-3.678 16.305 0.685 83
1.5880001 16.582001 0.66799998 114
1.571 16.629 0.64399999 95
-3.743 16.891001 0.699 58
-3.6059999 16.875 0.65849996 69
-3.5865002 16.886002 0.65349996 86.5
-3.849 16.964333 0.69633335 98
-3.727 16.939602 0.68219995 80.400002
-3.7 16.999001 0.667 89
-3.5840001 16.98 0.66100001 95
-3.8169999 17.024 0.69199997 85
-3.7495 17.021 0.68900001 78.5
-3.6753335 17.024334 0.66866672 76
-3.5653334 17.032001 0.65133333 83.333336
1.034 17.132 0.62699997 76
-3.352 17.274 0.634 72
1.0404999 17.25 0.64249998 91.5
1.001 17.309999 0.62300003 92
-8.7355003 17.523998 0.69550002 150
-8.6609993 17.539249 0.68700004 162.5
-8.559 17.526335 0.68699998 157.66667
-8.44275 17.539001 0.69150007 185.25
-8.3490009 17.541668 0.69033337 172
-8.2530003 17.53775 0.68599999 167.75
-8.1528006 17.559601 0.685 166.8
-8.0406008 17.548201 0.68600005 173.60001
-7.9363999 17.5648 0.68559998 174
-7.8486671 17.557667 0.68700004 170.66667
-7.7615004 17.570333 0.68016666 167.66667
-7.6478577 17.564144 0.67814291 147.28572
-7.5531998 17.5802 0.68399996 173.8
-7.4404998 17.575668 0.68299997 163.16667
-7.3459997 17.577999 0.69050002 193.75
-7.2537994 17.573 0.67940003 165.8
-7.1486001 17.580799 0.68260002 173.2
-7.0469999 17.582167 0.68116665 172.5
-6.9414997 17.595751 0.68975002 198.75
-6.8470001 17.582666 0.67266673 151.66667
-6.75 17.594999 0.676 148
-6.619 17.583 0.66799998 122
-6.467 17.577999 0.66600001 112
-7.5300002 17.611 0.66900003 115
-6.8299999 17.604 0.69233334 208.66667
-6.7376666 17.606001 0.68799996 188
-6.6417499 17.609249 0.68625003 184.25
-6.5424995 17.613501 0.685 176.25
-6.4363999 17.6182 0.68540001 179
-6.3378005 17.623602 0.6864 180
-6.2540002 17.6266 0.68480003 173.40001
-6.1568336 17.631168 0.68566674 174.66667
-6.0491667 17.6315 0.68200004 159.83334
-5.9653335 17.639334 0.68166673 154.66667
-4.829 17.692501 0.69400001 201.5
-4.7585001 17.6975 0.68949997 185
-4.227334 17.670668 0.65566671 206.5
-4.1516366 17.666956 0.64981812 242.72728
-4.0465293 17.672647 0.65099996 239.41176
-3.9541578 17.677631 0.64978951 216
-3.8521111 17.681555 0.64166665 209.05556
-3.7473638 17.684546 0.63372731 186.09091
-3.6540914 17.671637 0.64190912 133.54546
-2.4435 17.691668 0.66300005 117.66667
-2.2920001 17.687 0.63700002 68
-2.1789999 17.691 0.63499999 66
-4.8439999 17.702999 0.67299998 112
-4.7709999 17.701 0.68099999 149
-4.6533337 17.704168 0.68900001 174.66667
-4.5434999 17.716 0.68600005 156.5
-4.4484 17.719801 0.68659997 156.60001
-4.3499999 17.723001 0.68740004 158.40001
-4.2779999 17.718 0.69300002 188
-3.6331668 17.745834 0.667 125
-3.5473335 17.748554 0.67300004 140
-3.4510002 17.762335 0.68400002 172.16667
-3.3438573 17.758429 0.68500006 183.42857
-3.253 17.766573 0.67900008 165
-3.145 17.767 0.68312496 182.75
-3.0454998 17.773834 0.68366671 183
-2.9619999 17.778166 0.68200004 176.16667
-2.8481112 17.775446 0.6811111 188.33333
-2.7532859 17.780287 0.67914289 190.85715
-2.6514447 17.785667 0.67688888 185
-2.5366001 17.7526 0.66869998 177.8
-2.4520907 17.730183 0.64390916 88.454552
-2.343091 17.780092 0.67209095 130.63637
-2.2434547 17.775272 0.67072731 124.9091
-2.1498334 17.787333 0.67466664 131.83334
-2.0476668 17.786835 0.67433333 124.66667
-1.9535 17.78875 0.69125003 138
-1.8516001 17.786001 0.67900002 144.40001
-1.717 17.789 0.69800001 131
-1.6950001 17.796 0.69400001 133
-1.174 17.746 0.62900001 61
-1.085 17.761999 0.63300002 63
-0.97399998 17.780001 0.63099998 55
-0.214 17.792999 0.63099998 68
-3.6440001 17.816999 0.60500002 80
-3.5145001 17.8085 0.65700001 103.5
-3.4100001 17.812 0.66500002 94
-3.3729999 17.861668 0.66166669 79.666672
-3.2424998 17.847 0.65700001 73
-3.1603334 17.838667 0.66133332 92.666672
-3.0450001 17.839333 0.6606667 92
-2.9286666 17.831333 0.65900004 96
-2.845 17.813999 0.66350001 117.5
-2.7179999 17.805 0.66000003 115
-2.6440001 17.821999 0.65266669 90.666672
-2.5533333 17.828335 0.64766669 85
-2.4289999 17.861 0.64399999 81
-2.398 17.804001 0.66100001 132
-2.102 17.802 0.667 145
-2.0436001 17.802601 0.66379994 129.8
-1.9481667 17.807167 0.66400003 121.83334
-1.8525 17.821501 0.66637504 125.75
-1.7484444 17.833334 0.6708889 125.88889
-1.6435 17.8297 0.67399997 133.7
-1.5513749 17.833626 0.67349994 138.25
-1.4557692 17.842001 0.67084616 132.30769
-1.34875 17.837999 0.66650003 129.91667
-1.250643 17.839643 0.66878575 138.35715
-1.1503077 17.83754 0.66746151 136.38461
-1.0490834 17.847082 0.66941667 138.83334
-0.95038462 17.854 0.66707695 131.84616
-0.85390908 17.860819 0.66881818 131.81819
-0.7536667 17.859667 0.66893333 130.06668
-0.65172738 17.868273 0.66890907 137.63637
-0.55335712 17.872429 0.66607141 135.35715
-0.4505834 17.869419 0.66591668 147.75
-0.34966668 17.883467 0.66960001 145.53334
-0.25744444 17.887999 0.66899997 143.44444
-0.15385716 17.884144 0.67014289 124.85715
-0.048799999 17.8736 0.66080004 106.4
0.054666668 17.886333 0.67049998 108
0.1665 17.858 0.64250004 75.5
0.26800001 17.865002 0.64300001 82
0.38 17.864 0.64099997 81
0.403 17.882 0.64600003 91
0.96075004 17.89225 0.66224998 89.5
-3.5244999 17.9195 0.63600004 94
-3.2349999 17.996 0.65499997 72
-3.0179999 17.954 0.65499997 73
-2.9030001 17.959999 0.65399998 74
-2.7695 17.9165 0.64750004 55.5
-2.645 17.927999 0.64600003 58
-2.4295001 17.952999 0.634 71.5
-1.7885001 17.948 0.64899999 71
-1.675 17.9475 0.64600003 66
-1.5810001 17.914 0.64700001 71.5
-1.434 17.92 0.64099997 57
-0.2265 17.901001 0.66049999 147.5
-0.14785716 17.903572 0.66600001 151
-0.044857141 17.907858 0.66885722 148.57144
0.049249999 17.912437 0.67149997 140.375
0.14122224 17.91511 0.67633325 144.11111
0.24218182 17.91991 0.67618185 147.81819
0.34411111 17.921778 0.67333341 150.11111
0.45300001 17.935923 0.67169231 143.23077
0.55236369 17.945364 0.66836369 141.45454
0.6530714 17.949501 0.66692859 137
0.75030005 17.951601 0.67200005 143.90001
0.84906262 17.940435 0.65543747 134.5625
0.94390005 17.935499 0.66919994 108.8
1.0454286 17.972143 0.68042862 169.71429
-3.451 18.086 0.65200001 86.5
-3.2150002 18.079498 0.64999998 83.5
-3.1070001 18.065001 0.64899999 83
-3.046 18.049 0.65100002 78
-2.994 18.087 0.65100002 69
-2.8829999 18.050499 0.64950001 76.5
-2.4349999 18.077999 0.625 83
-1.765 18.056999 0.64600003 63
-1.562 18.091999 0.64600003 59
0.75849998 18.031 0.63550001 83.5
0.815 18.021 0.64899999 106
2.151 18.03875 0.61049998 106
2.2503333 18.034334 0.61750001 141.66667
2.3515389 18.046154 0.62969232 181.30769
2.451077 18.046232 0.63646156 216.23077
2.5431111 18.063778 0.65799999 151.44444
2.6474447 18.073891 0.67900008 180.66667
2.7553 18.078199 0.67640001 190.3
2.8517501 18.084625 0.67624998 186.75
2.9567499 18.084873 0.67374998 180.5
3.0541112 18.091444 0.68133336 198.77779
3.1305997 18.089401 0.67340004 163.60001
-8.7869997 18.167 0.69400001 144
-3.5209999 18.144501 0.63150001 99.5
-3.4522221 18.154444 0.62488884 92.444443
-3.3532002 18.155798 0.63640004 99.400002
-3.2465 18.126251 0.634 100.5
-3.1849999 18.112 0.64300001 94
-3.0524998 18.1355 0.63266671 98
-2.9468331 18.133333 0.63333338 91.666672
-2.8559999 18.1745 0.63150001 96
-2.751143 18.176857 0.63657141 83.428574
-2.6391428 18.161713 0.63242859 83.857147
-2.404 18.193001 0.61900002 96
-2.3789999 18.181999 0.61500001 92
-1.8355 18.186001 0.63950002 82
-1.7425001 18.177 0.64199996 73
-1.6475 18.149 0.64400005 66
-1.533 18.153999 0.64349997 64
2.6589999 18.118 0.64899999 83
2.763 18.1145 0.64849997 87
2.8710001 18.131668 0.64600003 79.333336
2.9420002 18.137333 0.64600003 85
3.052 18.129499 0.64625001 92.5
3.1029999 18.118 0.64999998 101
-8.7030001 18.225 0.69800001 121
-3.4085 18.236 0.63499999 65
-2.8553333 18.244667 0.63466668 83.333336
-2.7674999 18.2085 0.61549997 91
-2.4184999 18.2185 0.63499999 85
-2.3456001 18.244801 0.6354 94.599998
-2.2463751 18.257376 0.63437504 96.25
-2.1501429 18.262142 0.6264286 93.714287
-2.0580001 18.269573 0.63042861 91.857147
-1.948625 18.272499 0.62712497 93
-1.8523334 18.238668 0.63366669 83.666672
-1.75 18.215 0.62900001 89
-1.65425 18.2225 0.62849998 88.75
-1.5508 18.226 0.62939996 85.800003
-1.4401668 18.236334 0.63366663 77.333336
-1.3464001 18.2656 0.63300008 79
-1.2539999 18.2644 0.62780005 84
-1.15125 18.276749 0.63 83.75
-1.0546668 18.272667 0.62933338 84.333336
-0.94799995 18.284332 0.63800001 72.666672
-0.85600007 18.281002 0.62766665 87.333336
-0.68000001 18.292999 0.62599999 89
-0.51800001 18.278 0.61799997 83
-0.289 18.298 0.61699998 87
2.934 18.231001 0.63599998 62
-2.4430001 18.311001 0.653 59
-2.3529999 18.343 0.65700001 70
-2.1359999 18.382 0.65849996 67.5
-1.95 18.360334 0.65566671 68.333336
-1.3279999 18.330999 0.648 62
-1.191 18.353001 0.64600003 64
-1.085 18.324501 0.6455 66.5
-0.93400002 18.319 0.63499999 83
-0.85350001 18.313 0.64349997 68
-0.74983335 18.315166 0.63250005 86.833336
-0.63466668 18.320667 0.63433337 79.333336
-0.55425 18.326 0.63325 80.75
-0.45099998 18.342751 0.63499999 79.5
-0.34300002 18.324333 0.62666667 84
-0.25524998 18.360001 0.63599998 83.75
-0.1512 18.3466 0.63160002 85.800003
-0.064750001 18.35125 0.63349998 83.75
0.05114286 18.342716 0.63300002 87.285721
0.14274999 18.354 0.63625002 86.5
0.24700001 18.386501 0.63199997 89.5
0.3335 18.3985 0.62550002 96
-2.033 18.403999 0.65899998 63
-0.778 18.433001 0.653 66
-0.67299998 18.43 0.65250003 61.5
-0.43099999 18.458 0.65200001 67
-0.3265 18.4655 0.65100002 68.5
-0.152 18.450001 0.65149999 68
0.0275 18.43 0.65275002 68.5
0.138 18.444 0.65600002 70
0.2705 18.419001 0.63824999 89.75
0.35775 18.4275 0.64250004 90.5
0.42750001 18.4505 0.64600003 83.5
0.37099999 18.513 0.66000003 77
0.574 18.687 0.65250003 73
0.54000002 18.726 0.65799999 65
0.63366669 18.710335 0.65166664 61.666668
3.0910001 18.754999 0.64700001 75
3.115 18.755001 0.64100003 81.5
-9.3570004 18.799999 0.69199997 119
-3.312 18.83 0.64499998 109
2.665 18.817251 0.61549997 81
2.7539999 18.8286 0.6146 81.599998
2.8570001 18.835167 0.61516666 83.166672
2.9390001 18.8384 0.61900008 81.800003
3.0380001 18.849001 0.61580002 78
3.1447146 18.85043 0.62171429 82.857147
3.2325559 18.860109 0.62355554 83
-3.303 18.921501 0.65149999 88
-2.3080001 18.931999 0.62300003 78
-2.1689999 18.982 0.62400001 85
-0.991 18.954 0.64099997 87
-2.075 19.003 0.62699997 89
0.419 19.123001 0.64050001 87.5
-9.6755009 19.378502 0.64725 93.5
-9.6750002 19.438999 0.64775002 125
-9.678833 19.539333 0.6541667 137.5
-3.5969999 19.589001 0.62900001 71
-9.684 19.642002 0.65133339 137.66667
3.187 19.65 0.66600001 64
-9.6892872 19.751286 0.65271437 136.28572
-2.326 19.701 0.63800001 77
-9.6945 19.851999 0.65200001 136
-9.7010002 19.992001 0.60299999 137
-9.6987143 19.951429 0.65342855 137.28572
-9.703001 20.061001 0.65399998 136.66667
-9.7069998 20.132999 0.65033334 135
-9.712286 20.246716 0.64985716 135
-9.7180004 20.351749 0.65224999 132.5
0.676 20.3375 0.68050003 62.5
-9.7220001 20.4265 0.64475 131.25
-9.7280006 20.534002 0.65000004 132.14287
-9.7340002 20.652334 0.65300006 133
-9.7380009 20.727333 0.65066671 133
-9.7427158 20.845715 0.65057147 132.85715
-9.7480001 20.954 0.64950001 131.75
-9.7515001 21.0305 0.64649999 131.5
-9.7571669 21.147167 0.65450007 131.66667
-9.7623329 21.264 0.64633334 131.33334
0.51950002 21.262501 0.671 62
-9.7666664 21.343666 0.64366668 129
-9.7720003 21.426001 0.6505 129.5
-9.7791252 21.549625 0.64924997 128.5
-9.7860003 21.673752 0.64600003 130.5
-9.79 21.755667 0.65700001 131.66667
-2.677 21.733 0.699 76
-9.7940006 21.837002 0.65066671 130
-2.7468336 21.843832 0.67216671 91.333336
-2.6099999 21.865 0.65700001 84
-2.5605001 21.858002 0.66974998 80.25
-2.414 21.857 0.67199999 78
-2.3457501 21.865501 0.66374999 77.25
0.35600001 21.893999 0.68199998 59
-9.7980003 21.919334 0.64733332 129
-2.3369999 21.910999 0.68300003 72
0.38499999 21.979 0.66100001 80
0.44 21.971001 0.67199993 72
0.55799997 21.984249 0.66400003 75.5
0.62 21.9935 0.67250001 81
-9.8038578 22.04986 0.6487143 129
0.35750002 22.005501 0.68599999 81
0.49599999 22.000999 0.65700001 71
0.60699999 22.003 0.65499997 95
-9.8100004 22.17025 0.64899999 126.5
-9.8153334 22.258335 0.65900004 124.66667
-9.8220005 22.349003 0.65500003 122.66667
-9.828001 22.439001 0.65066671 124.33334
-2.7529998 22.462999 0.68850005 76
-9.8330002 22.527334 0.64200008 128.33334
-2.823 22.564999 0.64750004 64.5
-2.7407501 22.539249 0.66625005 71.5
-2.6475 22.5415 0.65499997 61.5
-2.5480001 22.547333 0.66866672 67.666672
-2.4920001 22.559999 0.66600001 72
-2.34725 22.546 0.67650002 69.5
-9.8363342 22.613003 0.64499998 128.33334
0.28200001 22.606001 0.66000003 63
0.32066667 22.655998 0.68033338 70.333336
0.454 22.653 0.66500002 71
0.68300003 22.688999 0.68900001 75
-9.8430004 22.745001 0.6505 129.125
0.28400001 22.715 0.69099998 71
-9.849 22.87775 0.64725 129.25
-3.9679999 22.898001 0.68599999 71
-9.8529997 22.966665 0.65766668 128.33334
-4.1570001 22.962 0.69599998 91
-4.0513334 22.980001 0.68166673 95.666672
-3.964 22.964001 0.66799998 90
-3.8940001 22.986 0.64200002 69
-3.448 22.976 0.69499999 61
-3.1730001 22.900999 0.602 130
-2.6370001 22.949001 0.62699997 107.5
-2.569 22.996 0.65600002 75
-2.4530001 22.997 0.65899998 59
-9.8570004 23.056 0.65499997 127
-4.1205001 23.006001 0.68650001 87.5
-4.0190001 23.024 0.66100001 92
-3.9285002 23.014999 0.66250002 97
-3.424 23.013 0.68800002 54
-2.3280001 23.066 0.66499996 69.5
-2.2539999 23.0555 0.66299999 77
-2.1646667 23.041 0.65900004 71
-2.036 23.068001 0.65900004 60.5
-1.8430001 23.030001 0.648 67
-1.729 23.063 0.65600002 62
-1.6545 23.035999 0.65100002 69
-1.5829999 23.059 0.65399998 65
-1.439 23.079 0.65499997 61
-1.293 23.061001 0.65100002 65
-1.1480001 23.067999 0.65100002 60.666668
-0.713 23.094 0.648 60
-9.8616676 23.146002 0.64900005 126.66667
-2.3510001 23.147667 0.6886667 73
-2.2523334 23.139999 0.68900001 79.333336
-2.1463335 23.159 0.68533337 74.333336
-2.0593333 23.166668 0.68466663 73
-1.913 23.1675 0.68149996 73.5
-1.8815 23.144001 0.67649996 69.5
-1.776 23.167334 0.68566674 74
-1.648 23.1535 0.68199998 71.5
-1.501 23.143999 0.699 86
-1.471 23.125 0.676 68.5
-1.3366666 23.158667 0.68099999 75
-1.2255 23.174999 0.69599998 90
-0.94800001 23.167 0.69800001 74
-0.847 23.186501 0.67500001 69.5
-0.65799999 23.191 0.69599998 92
-0.45300001 23.166 0.653 56
-0.162 23.166 0.653 57
-0.030500002 23.1075 0.64999998 64.5
0.070500001 23.123001 0.65499997 69.5
0.1 23.184999 0.65700001 63
0.21650001 23.16 0.6595 75
0.36199999 23.174999 0.66149998 71
0.493 23.148001 0.65600002 72
-9.8653336 23.236334 0.64566672 130
-1.9450001 23.204 0.67299998 65
-1.858 23.212999 0.68300003 73
-1.7496666 23.208334 0.68066663 67.666672
-1.652 23.206501 0.68099999 66.5
-1.5353334 23.214668 0.67666668 65
-1.4330001 23.216 0.68449998 71
-1.3499999 23.221334 0.67633337 67
-1.2436666 23.240667 0.67166662 63.666668
-1.155 23.223 0.685 75
-1.06075 23.230749 0.67974997 65.75
-0.93700004 23.247501 0.68299997 65.5
-0.85466671 23.261333 0.67733335 66.333336
-0.75240004 23.233999 0.67720002 68.800003
-0.63966668 23.240002 0.68533337 77.333336
-0.56133336 23.240332 0.67799997 72.333336
-0.45500001 23.267666 0.68233335 75.333336
-0.33179998 23.249401 0.67919999 74
-0.24066667 23.266668 0.68066669 76.666672
-0.16275001 23.25025 0.68300003 77.25
-0.045666665 23.267002 0.68666673 76.666672
0.049166664 23.276335 0.68366671 75.666672
0.11033334 23.268002 0.68433332 80
0.2465 23.241001 0.6825 83
-9.868 23.323668 0.639 135.33334
-0.92500001 23.309999 0.667 57
-0.83700001 23.305 0.676 67
-0.64649999 23.309 0.66850001 61
-0.52950001 23.318501 0.67299998 65
-0.486 23.351999 0.66100001 54
-0.38249999 23.3055 0.67200005 65
-0.25099999 23.299999 0.67500001 68
-0.119 23.317001 0.67499995 68
-0.075000003 23.326 0.66600001 61
0.071999997 23.319 0.66900003 66
0.17399999 23.32 0.68300003 72
0.79100001 23.344999 0.69499999 71
-9.8469095 23.437456 0.65190911 170.72728
-9.7410002 23.432751 0.66899997 162
-9.643857 23.424002 0.66642857 170.85715
-9.5395002 23.445 0.66866672 158.83334
-9.4516668 23.425667 0.66666669 154.33334
-9.3698339 23.4485 0.67466664 175.33334
-9.2579994 23.442801 0.67980003 183.60001
-9.1599998 23.449669 0.671 178.16667
-9.0464993 23.449249 0.67500001 175.75
-8.9470005 23.4622 0.67460001 175.2
-8.8537998 23.464998 0.67300004 160.40001
-8.7358341 23.472668 0.67283338 174.66667
-8.6365004 23.476667 0.6631667 154.66667
-8.5378332 23.481833 0.66316664 163.16667
-8.4431429 23.483715 0.66657144 167.42857
-8.3355713 23.487999 0.66785711 173.28572
-8.2458744 23.491127 0.65512496 151.625
-8.1616011 23.489601 0.67160004 186.60001
0.67699999 23.474001 0.67699999 95
0.73549998 23.452 0.6875 78.5
0.86899996 23.473999 0.68299997 94.5
0.926 23.429001 0.69400001 88.5
1.002 23.489 0.68400002 102
-9.8579998 23.547001 0.62300003 134
-8.3459997 23.504999 0.63599998 98
-8.1294994 23.502501 0.65849996 164.5
-8.0485001 23.505835 0.66649997 185
-7.9573998 23.509602 0.66900003 190.8
-6.4520001 23.582249 0.67449999 180.25
-6.3643999 23.587202 0.68180001 210.40001
-6.2526674 23.5895 0.67366666 199.33334
-6.1849999 23.591999 0.66999996 190.5
-4.6609998 23.542 0.64600003 58
-3.7510002 23.579666 0.63433337 81.666672
-3.6830001 23.533001 0.62199998 82
-3.5356669 23.562336 0.63199997 86
-3.4680002 23.58 0.648 85
-2.427 23.598 0.625 92
-2.395 23.583 0.62300003 88
-2.2460001 23.589001 0.62300003 88
-1.947 23.579 0.61900002 86
0.76800001 23.560001 0.667 89.666672
0.82700002 23.556999 0.67699999 72
0.95899999 23.514 0.67400002 121.5
-9.8660002 23.65 0.616 114
-6.1293335 23.603003 0.66600001 172.33334
-6.0473328 23.611668 0.67499995 177.33334
-5.9437499 23.608002 0.67575002 181.5
-5.8595004 23.617668 0.66366667 138.66667
-5.7541251 23.636501 0.67212498 166.25
-5.6820002 23.6635 0.66050005 138.5
-4.7431669 23.646168 0.67666668 151.83334
-4.6447501 23.657499 0.67849994 156.75
-4.5453634 23.682272 0.65009093 181.36365
-4.4500003 23.690443 0.65755552 193.11111
-4.3513336 23.694334 0.68000001 175.66667
-4.29 23.695999 0.68800002 145
-4.0120001 23.684 0.69199997 90
-3.9619999 23.688335 0.6693334 101.66667
-3.8799999 23.671751 0.67049998 114
-3.7516668 23.679333 0.67883337 122
-3.647429 23.640001 0.65571427 106.85715
-3.5569999 23.659002 0.6742 83
-3.4327502 23.632751 0.65974998 89.25
-3.3545837 23.650999 0.64941669 107.75
-3.2470002 23.659002 0.64933336 122.33334
-3.15675 23.662251 0.64824998 128
-3.0402 23.650602 0.64420003 115
-2.9420002 23.639 0.64566672 100.66667
-2.8583999 23.645201 0.64519995 104.8
-2.7485001 23.656 0.64550006 111.25
-2.6440001 23.665001 0.64466667 124
-2.5615001 23.667749 0.64950001 111.5
-2.4521999 23.672201 0.65140003 98
-2.3439999 23.669668 0.64333338 99.333336
-2.2536669 23.667 0.64333338 97
-2.1447999 23.657202 0.64140004 90.599998
-2.0426669 23.656332 0.6376667 92.333336
-1.9536667 23.666 0.64166665 89.333336
-1.8626666 23.649002 0.63133335 88.333336
-1.7453334 23.675667 0.63566661 92.666672
-1.681 23.617001 0.62099999 83
-1.5649999 23.666 0.63000005 90.666672
-1.4315 23.6765 0.63150001 88.5
-1.3839999 23.625 0.62099999 82
-1.2653334 23.637335 0.62366664 83
-1.132 23.66 0.62950003 76.5
-0.98399997 23.668499 0.62699997 77.5
-0.84933329 23.658333 0.62566674 76.666672
-0.67000002 23.632 0.62 75
-0.537 23.663 0.62400001 77
-0.40400001 23.691 0.62599999 77
-0.373 23.646999 0.61900002 76
-0.106 23.674999 0.62199998 74
-9.8769999 23.759001 0.61500001 111
-4.4300003 23.702999 0.61250001 183
-4.3490005 23.705 0.63042855 192.85715
-4.2464004 23.708698 0.6415 176.40001
-4.151125 23.713875 0.63737506 171.375
-4.052 23.713717 0.62814283 149.42857
-3.9510002 23.722403 0.62940001 138.2
-3.8577499 23.723249 0.64974999 96.25
-3.618 23.700001 0.69800001 105
-3.467 23.709999 0.69700003 75
-3.3150001 23.709999 0.69400001 138
-3.2543335 23.712002 0.68033338 158.66667
-3.1487501 23.716 0.68374997 164.25
-3.0526664 23.716002 0.68100011 153.66667
-2.3180001 23.716999 0.66900003 90
-2.2869999 23.705 0.66000003 101
-2.1670001 23.705 0.66600001 77
-2.0179999 23.714001 0.66399997 75
-1.987 23.701 0.65700001 83
-1.8225 23.706501 0.65250003 86
-1.719 23.725 0.65899998 84
-1.6434999 23.71875 0.65200001 90.25
-1.5393333 23.725668 0.65566671 84.333336
-1.4496667 23.731667 0.65600002 79.666672
-1.3447499 23.726749 0.65024996 85.75
-1.2396667 23.726002 0.64966667 82.333336
-1.1500001 23.727001 0.64849997 76.5
-1.04625 23.737749 0.64974999 75.75
-0.94166672 23.734335 0.64900005 76
-0.85266674 23.751333 0.65766668 67.666672
-0.73880005 23.740601 0.64480001 76
-0.64300001 23.738335 0.64766669 74.333336
-0.56125003 23.742498 0.65249997 66.75
-0.44639999 23.7432 0.64499998 74
-0.345 23.764334 0.64733338 78
-0.25549999 23.755501 0.64325005 75.75
-0.15099999 23.765751 0.64274997 78
-0.047000002 23.788666 0.64233339 101
0.042999998 23.7922 0.63120002 128.60001
0.12233333 23.790335 0.62266672 141.66667
0.237 23.797001 0.62199998 149
-9.8839998 23.862 0.60799998 129
-4.619 23.799999 0.63 57
-0.28600001 23.812 0.66500002 61
-0.13699999 23.809 0.662 64
0.048999999 23.8062 0.65700001 89.400002
0.14479999 23.8146 0.65260005 100
0.26249999 23.8225 0.64683336 120.33334
0.36449999 23.82025 0.6415 125.75
0.44120002 23.8284 0.64399999 121
0.55842859 23.82357 0.64314288 122.42857
-9.9139996 23.934 0.64200002 89
-9.8879995 23.955999 0.60799998 124
-9.6560001 23.903999 0.62900001 91
-3.9000001 23.937 0.634 63
1.643 23.979 0.616 164
1.7490001 23.974998 0.62199998 153.5
1.84 23.98 0.62599999 139
1.992 23.982 0.63300002 125
2.0209999 23.969999 0.63499999 114
2.145 23.997 0.62800002 116
-9.9069996 24.000999 0.64200002 114
-9.8929996 24.053001 0.61949998 126.5
-9.6759996 24.083 0.65600002 120.5
-9.4899998 24.013 0.64899999 67
-4.84375 24.069748 0.63050002 136.75
-4.7622004 24.054998 0.62900001 138.40001
-4.6846666 24.033001 0.62200004 117
-3.914 24.021999 0.60600001 124
-3.8766668 24.045334 0.61900002 96.666672
-3.7814999 24.065001 0.60600001 135
-3.6294999 24.081501 0.60899997 141
-3.5239999 24.098 0.616 124
1.599 24.004 0.60799998 83
1.7360001 24.001499 0.60399997 210
1.873 24.013 0.60500002 207
1.9436667 24.014 0.61066669 193.66667
2.0563333 24.023001 0.61199999 198.33334
2.1789999 24.033001 0.60500002 202
2.21 24.035999 0.61299998 205
-9.8889999 24.131001 0.63200003 122
-9.651 24.153 0.64600003 117
-9.5760002 24.139999 0.66399997 104
-9.3839998 24.187 0.65700001 87
-9.2250004 24.136 0.66000003 129
-9.0365 24.1425 0.653 103.5
-3.835 24.106001 0.61799997 88
-3.7335 24.1535 0.62650001 90.5
-3.681 24.117001 0.61799997 98
-3.5805001 24.169498 0.62849998 90
-2.516 24.174 0.62 116
-2.4516666 24.139669 0.60566664 165.66667
-2.363667 24.177 0.62 122
-2.2506666 24.170668 0.61666667 131.66667
-2.177 24.153999 0.61000001 154
-2.0566669 24.168669 0.61433333 138
-1.9446667 24.172667 0.61366665 138
-1.8564999 24.158001 0.6045 171.5
-1.7513335 24.177334 0.61200005 142
-1.631 24.197001 0.61799997 120
-1.5683334 24.181 0.60733336 158
-1.4315 24.184 0.60800004 155.5
-1.279 24.1845 0.60399997 168
-1.127 24.1905 0.60699999 159.5
-0.97500002 24.192001 0.60399997 168
-0.82300001 24.198999 0.60100001 171.5
-9.875 24.226 0.63999999 99.5
-9.6549997 24.250999 0.63999999 103
-6.1540008 24.280668 0.65366673 115.66667
-6.0749998 24.226 0.64899999 81
-2.4319999 24.247 0.63499999 90
-2.277 24.236 0.63099998 93
-2.1394999 24.238499 0.63150001 94
-1.971 24.25 0.63200003 93
-1.8335 24.248001 0.63150001 91.5
-1.6800001 24.247002 0.6275 96
-1.5275 24.250999 0.62950003 92
-1.478 24.204 0.61799997 121
-1.3583333 24.231667 0.62266672 107.66667
-1.2205 24.2255 0.625 101
-1.174 24.204 0.61799997 126
-1.0523334 24.219334 0.62133336 111.33334
-0.94749999 24.264 0.62950003 88
-0.884 24.208 0.61300004 130.5
-0.74800003 24.237 0.62033337 110
-0.65633333 24.223669 0.61033338 143.66667
-0.54999995 24.237251 0.61475003 127.75
-0.44333333 24.240667 0.6146667 126.66667
-0.352 24.253 0.61500001 127.5
-0.2606667 24.236668 0.61000001 142.66667
-0.13866667 24.251999 0.61433333 128
-0.078000002 24.233 0.60000002 181
0.88266677 24.266668 0.6426667 117.66667
0.9436667 24.257887 0.64388889 200.66667
