# .PCD v0.7 - Point Cloud Data file format
VERSION 0.7
FIELDS x y z intensity
SIZE 4 4 4 4
TYPE F F F F
COUNT 1 1 1 1
WIDTH 1222
HEIGHT 1
VIEWPOINT 0 0 0 1 0 0 0
POINTS 1222
DATA ascii
6.3172002 -2.6128001 -0.21500002 52
-11.9378 -2.5726001 -0.21159999 51
-11.843 -2.55075 -0.23175001 51
-11.773999 -2.5825 -0.2755 51
-8.0110006 -2.595 -0.24900003 115.33334
-7.9480395 -2.5411468 -0.25087503 130.14584
4.0658336 -2.5133333 -0.20916668 60.666668
4.5747499 -2.5280001 -0.29825002 50
4.6639409 -2.5397649 -0.29452941 50
4.7439051 -2.524333 -0.29238099 50
5.1941433 -2.5134287 -0.2857143 53.14286
5.2256875 -2.5257499 -0.26828125 52.09375
5.3387141 -2.5050001 -0.22842856 53.714287
6.3110003 -2.5956669 -0.22733334 52
6.4813337 -2.51 -0.226 52
6.5406108 -2.5130556 -0.21127778 52
6.605 -2.503 -0.205 52
-11.026999 -2.4256001 -0.27779999 51
-7.935792 -2.4447086 -0.25069788 232.26042
-7.897666 -2.493 -0.24844445 240.44444
3.9750345 -2.4213276 -0.25362071 62.15517
4.0227447 -2.4603617 -0.21942554 62.10638
4.796 -2.4990001 -0.29699999 50
5.1836972 -2.4569533 -0.2870698 54.906975
5.2276673 -2.459033 -0.26195002 53.633335
5.372839 -2.4657202 -0.25617206 55.172043
5.4271631 -2.4255819 -0.25120404 55.785713
6.4613023 -2.4578605 -0.27337208 51.906975
6.5509839 -2.449765 -0.25726473 52
6.6468029 -2.4443605 -0.23547539 51.999996
6.7388177 -2.4291821 -0.21951517 52
6.8327003 -2.4135001 -0.20779999 52
-11.076 -2.37075 -0.22624999 51
-8.0284853 -2.3345282 -0.24979414 204.52942
-7.9870267 -2.3837636 -0.25081578 223.6579
3.88728 -2.3198798 -0.28443998 66.559998
3.9475386 -2.3531597 -0.24832518 61.564415
4.0202498 -2.3603752 -0.21471874 52.21875
5.4428673 -2.352221 -0.26519471 54.769913
5.5721612 -2.3333869 -0.23332258 52.451611
5.6152105 -2.3241582 -0.22215791 52.421055
6.5744004 -2.3928001 -0.29539999 52
6.6529717 -2.3765426 -0.28251424 52
6.7511859 -2.3608334 -0.26707408 52
6.847147 -2.3488359 -0.25399995 51.999996
6.9145002 -2.3410833 -0.24591669 52
-10.35825 -2.217 -0.22499999 52.75
-8.120965 -2.2255182 -0.24925002 152.58929
-8.0768929 -2.2771609 -0.25098217 179.41072
3.8706057 -2.263623 -0.28731146 61.622948
3.930321 -2.268887 -0.27445284 51.886795
5.4410458 -2.2645452 -0.28109089 55.78788
5.5714502 -2.2709501 -0.27679998 51.5
5.6487947 -2.2568009 -0.25346327 53.419117
5.7159672 -2.2262669 -0.23776667 58.866669
6.8755999 -2.2936001 -0.29260001 52
-15.04525 -2.1375 -0.23649999 51
-11.292999 -2.1170771 -0.26584616 52.69231
-9.6110001 -2.102 -0.25799999 65
-9.583889 -2.1222222 -0.28266662 74.333336
-8.2135391 -2.1171353 -0.25154054 103.32433
-8.1710892 -2.1667309 -0.25092539 127
5.6730003 -2.1985002 -0.29699999 54
5.7132502 -2.1942501 -0.28200001 58
6.2743335 -2.1223335 -0.20533335 51
6.8660002 -2.1145 -0.20300001 100
-14.3585 -2.0585001 -0.257 50
-11.317172 -2.0452855 -0.25837141 57.457142
-11.295692 -2.0835388 -0.22584616 53.538464
-10.57275 -2.0174999 -0.234 52
-10.48 -2.0439999 -0.27500001 50
-9.6422853 -2.0413568 -0.24983932 105.48215
-9.5915003 -2.078125 -0.29049999 118.25
-8.2566261 -2.0678594 -0.2501719 90.359375
6.7842002 -2.0178668 -0.22400002 159.46667
6.8218465 -2.0619998 -0.21361539 144.84616
-11.288 -1.997 -0.249 51
-11.150833 -1.9338334 -0.21600001 50
-10.578501 -1.9944999 -0.2165 51
-9.7314014 -1.9344002 -0.22746667 76.500008
-9.6745272 -1.9703945 -0.26321054 82.421051
5.9640002 -1.9586667 -0.28433335 50
6.0019999 -1.977 -0.28 50
6.6944547 -1.9102728 -0.25236365 169.63637
6.7307124 -1.954271 -0.23811863 166.08475
-12.145 -1.897 -0.257 50
-11.126667 -1.8913333 -0.257 50
-11.041369 -1.8469999 -0.25815788 50
-10.985001 -1.8179376 -0.23424999 50
-10.6135 -1.8840001 -0.287 50.5
-10.523101 -1.8354 -0.26449999 50
-10.4815 -1.8278335 -0.25008336 50.083336
-9.7723598 -1.8728398 -0.25116 51.52
-9.6669998 -1.835 -0.30000001 51
5.7519999 -1.8710001 -0.227 50
5.8470001 -1.82275 -0.26787502 51.125
5.941 -1.8435 -0.29025 51
6.0370002 -1.888 -0.292 51
6.6453738 -1.8512206 -0.25060582 178.42308
-11.436 -1.786 -0.227 50
-11.029375 -1.7814375 -0.24187498 50
-10.978 -1.781 -0.29233336 50
-10.461573 -1.7827144 -0.25828573 50.000004
-9.5810003 -1.707 -0.29499999 51
5.7665458 -1.7513638 -0.287 52.818184
5.8105001 -1.7825 -0.28650001 52
6.5572958 -1.7469993 -0.25040954 177.8381
-11.652 -1.6109999 -0.28799999 50
-11.549334 -1.6506666 -0.26400003 50
-10.915 -1.6116667 -0.287 50
-10.882287 -1.6517144 -0.29200003 50.000004
-10.759001 -1.6389999 -0.22266667 50
-9.5815001 -1.6884999 -0.2985 50.5
5.1341667 -1.6331667 -0.21075001 51.166668
5.283 -1.682 -0.237 50
6.4643431 -1.6390109 -0.25148389 174.03226
6.5072017 -1.6880003 -0.24053335 172.8
-11.604637 -1.561 -0.28463638 57.545456
-11.591001 -1.54 -0.27040002 53.799999
-10.947539 -1.5630001 -0.28715387 50
-10.793334 -1.5706667 -0.23266667 50
5.0606112 -1.5334998 -0.2179815 53.148148
5.1059999 -1.5916001 -0.2132 52
6.3706207 -1.5310414 -0.2497361 175.98611
6.4129448 -1.5798889 -0.2525 176.08333
-11.581599 -1.4886 -0.28260002 54.600002
-10.830667 -1.4349999 -0.23800001 51
-10.758778 -1.4292223 -0.21688889 50.444447
4.9832511 -1.4277145 -0.2794286 53.035717
5.0297036 -1.4581361 -0.24830863 52.925926
6.2776084 -1.4252948 -0.25131372 177.70589
6.3191638 -1.4729675 -0.25040984 176.80327
-10.727 -1.38675 -0.22 50
-10.660429 -1.3568572 -0.21542856 50.000004
-10.57 -1.326 -0.20900001 50
-10.414801 -1.312 -0.28560004 54.600002
-10.376667 -1.3150001 -0.27133334 52.666668
-10.289 -1.33 -0.29899999 52
4.9781208 -1.37924 -0.29116002 52.399998
5.0134172 -1.37825 -0.28058332 54.416668
6.1834874 -1.3187296 -0.24937837 180.54054
6.2275171 -1.3685174 -0.25055173 179.52873
-11.974 -1.2125001 -0.28749999 52
-11.522 -1.211 -0.20200001 56
-11.436455 -1.223091 -0.22490911 54.272728
-11.389001 -1.2195715 -0.2767143 56.285717
-10.302 -1.214 -0.233 50
-10.268591 -1.2492564 -0.25192311 50.974361
6.0890512 -1.2106665 -0.2518205 182.69231
6.1359124 -1.2644567 -0.25011879 181.77228
-12.018001 -1.124 -0.26289999 51.799999
-11.970212 -1.1546842 -0.24215786 51.105263
-11.701 -1.14 -0.23800001 50
-11.5394 -1.1774 -0.21820001 53.400002
-11.443534 -1.1888667 -0.25706667 53.600002
-10.338903 -1.1543655 -0.25117069 50.195122
-10.257 -1.1950001 -0.29899999 50
5.9990001 -1.1070001 -0.24969232 185
6.039413 -1.1535429 -0.25039655 184.79311
-12.105666 -1.011 -0.25066668 52.333336
-12.067094 -1.0580002 -0.24128124 51.21875
-11.358666 -1.0398668 -0.2834 50.933334
-10.347 -1.087 -0.29899999 50
5.9506278 -1.0516411 -0.25064829 182.86208
-12.1045 -0.99599999 -0.26350001 52
-12.089499 -0.97549993 -0.25025001 50.375
-11.344 -0.94689459 -0.28184211 51
-10.548667 -0.93000001 -0.29633331 52
5.8600407 -0.94486332 -0.25035366 185.12245
5.9043078 -0.99800009 -0.24876924 183.84616
-11.350051 -0.85764998 -0.2696 50.400002
-11.249182 -0.82327271 -0.22718184 50.818184
-10.607 -0.80500001 -0.289 53
-10.583547 -0.85236359 -0.29072729 53.272728
5.7707968 -0.83646083 -0.24847828 182.77391
5.8105254 -0.88487482 -0.25059995 182.95
-11.457334 -0.73011106 -0.25411114 50
-11.39 -0.764 -0.27399999 50
-11.246 -0.79699999 -0.241 50
-11.1144 -0.73159999 -0.2142 50
-11.1 -0.73100001 -0.20100001 50
-10.714001 -0.73609084 -0.2437273 52.909092
-10.660666 -0.75116664 -0.28294444 55
5.6760621 -0.72594857 -0.25102049 183.46391
5.7213297 -0.7780633 -0.25274682 185.78482
-10.988501 -0.61249995 -0.24033335 56
-10.827601 -0.62279999 -0.26680002 52
-10.760048 -0.65152383 -0.27971432 59.047619
5.5841875 -0.62017208 -0.25351563 189.46875
5.6252971 -0.667638 -0.24912381 183.49524
-11.007335 -0.59966671 -0.25133333 58.333336
-10.92475 -0.54793745 -0.23271878 84.6875
-10.869117 -0.549353 -0.27958822 75.705879
5.4908609 -0.51048273 -0.2500689 195.34483
5.5329747 -0.55987871 -0.25035661 194.80891
-14.349618 -0.42069232 -0.23207693 110.84616
-11.026791 -0.4209474 -0.23773688 117.47369
-10.960511 -0.46897429 -0.25674364 120
5.3958569 -0.40242854 -0.25021431 203.21429
5.4413466 -0.45390028 -0.25075787 200.04738
-14.3085 -0.38299999 -0.25483334 115.16667
-14.255183 -0.33559093 -0.24872726 116.54546
-11.125316 -0.34000006 -0.24747367 100.52631
-11.067333 -0.37420839 -0.26133335 113.58334
5.347518 -0.34848577 -0.25026459 198.85577
-14.205667 -0.29100001 -0.25216669 116
-14.172516 -0.23651855 -0.24859259 125.14815
-11.148 -0.29899999 -0.289 91
5.2581239 -0.24745263 -0.25100988 194.21393
5.3009 -0.29500002 -0.23300003 196.7
-14.235448 -0.14758621 -0.24986207 127.17242
5.1622272 -0.14122708 -0.25052428 187.17297
5.2083707 -0.19145651 -0.25160864 181.3261
-14.33359 -0.034636356 -0.25054541 126.04546
-14.288401 -0.086500004 -0.2518 126.3
5.0662627 -0.036178354 -0.25129184 208.17297
5.1128488 -0.087696992 -0.24830298 206.81819
-14.364482 0.045999996 -0.25096294 184.11111
4.9680648 0.067583792 -0.25058958 205.6185
5.0157642 0.018012347 -0.24920991 203.92593
-14.307001 0.102 -0.24700002 195.83334
-14.245145 0.15478574 -0.24917857 194.75002
4.8725624 0.16962501 -0.25315008 209.31876
4.9180956 0.12062856 -0.24906668 206.46667
-14.150242 0.23680001 -0.25424001 187.72
-14.089 0.28819999 -0.2419 192.60001
4.777616 0.27675158 -0.25167373 216.43971
4.8229342 0.22561587 -0.2479801 216.39735
-14.1115 0.32249999 -0.2445 91
-14.046501 0.32966667 -0.21899998 146.16667
-13.967251 0.38950002 -0.21225001 140.75
-13.518535 0.32973337 -0.26126668 89.066673
-13.485637 0.36600003 -0.26981822 83.36364
-13.386 0.382 -0.23 63
4.6834469 0.3829554 -0.25208926 221.83929
4.7274399 0.33302614 -0.24974863 219.07854
-14.045 0.41800001 -0.24600001 69
-13.935333 0.42949998 -0.22666667 141.5
-13.882335 0.45966667 -0.21233335 143
-13.432705 0.4426471 -0.25611764 85.529411
-13.376902 0.47039995 -0.27690002 91.200005
4.5917549 0.48954388 -0.25338599 225.42105
4.6332555 0.44142613 -0.24977292 223.23506
-13.414882 0.53735298 -0.23258825 114.29412
-13.375223 0.5523333 -0.26711109 107.83334
-5.741231 0.58428192 -0.26266667 51
-5.6365414 0.59458339 -0.25629169 53.333336
4.4990001 0.59600002 -0.28924999 141.25
4.5411639 0.54846483 -0.25010422 195.44171
-13.4055 0.60966671 -0.25283337 110
-13.376429 0.61457145 -0.24528572 103.14286
-13.255183 0.64481819 -0.23372729 81.545456
-13.163649 0.66370595 -0.25876468 87.764709
-13.0775 0.68550003 -0.28299999 86.5
-5.7610002 0.60000002 -0.2155 53.5
-5.6238894 0.62063432 -0.24752435 71.914635
-5.5557208 0.64941174 -0.25392652 64.235298
-5.4445844 0.6752696 -0.24788763 62.988766
-5.3889251 0.69400012 -0.26551849 69.740738
4.451992 0.64937735 -0.2504887 181.18079
-13.251413 0.75952947 -0.22682351 94.823532
-13.1517 0.72920001 -0.26500002 75.5
-13.041334 0.73016667 -0.27350003 77.666672
-12.966666 0.77516669 -0.28533334 88.333336
-5.3410401 0.72383857 -0.24582256 65.709679
-5.2590146 0.77322447 -0.25326529 63.210884
4.4497681 0.73773247 -0.2506237 159.40205
4.5122094 0.78888476 -0.25025001 104.44231
-13.412 0.889 -0.235 89
-13.342626 0.85075003 -0.21637501 98.125
-13.253834 0.82266665 -0.23933333 78.166672
-13.109 0.80299997 -0.264 66
-13.018333 0.84666669 -0.25233334 71
-12.969798 0.85825008 -0.27280003 91.650002
-5.2114058 0.80929744 -0.23870273 69.351357
-5.1492577 0.85200506 -0.25055873 66.009392
-5.0901852 0.89114821 -0.26822224 58.51852
4.4818454 0.87705153 -0.25046149 118.19872
4.519937 0.82844001 -0.25043932 118.12717
-13.336 0.92257142 -0.21599999 142.71429
-13.2616 0.97630006 -0.222 135.2
-13.008 0.92799997 -0.242 67
-12.94559 0.94745463 -0.27109092 84.954552
-5.043602 0.93875325 -0.24850221 61.986782
-4.9865308 0.98725021 -0.26084375 61.359375
4.4440951 0.94508064 -0.25039324 110.34237
-13.2195 1.01825 -0.21874999 167.25
-13.156446 1.0623333 -0.2366111 165.66667
-13.0625 1.056 -0.25999999 78.5
-12.9686 1.0269001 -0.27740002 77.700005
-4.9376669 1.0378047 -0.24713334 73.284447
-4.8877816 1.0861371 -0.26013696 69.246574
4.4875436 1.012522 -0.25386956 97.717392
4.5453868 1.0614117 -0.24891882 104.68125
-13.117499 1.1098334 -0.25483334 209.16667
-13.054599 1.1624335 -0.25033337 209.06668
-4.8385434 1.1448939 -0.24818748 80.875
-4.7941036 1.1920345 -0.26737934 72.931038
-3.5318344 1.1310558 -0.2507081 90.565216
-3.4758661 1.1783339 -0.25026742 135.51163
4.5955386 1.1046923 -0.26346153 105.53847
4.6494923 1.149702 -0.25031057 93.242241
4.7030911 1.1933635 -0.23345454 87.090912
-13.001834 1.207 -0.25800002 208.16667
-12.949435 1.2516 -0.25066668 206.43335
-12.897334 1.296 -0.24450001 207.33334
-12.117001 1.24025 -0.24958333 97.333336
-12.08616 1.2739471 -0.24589473 89.84211
-4.7548232 1.2494724 -0.25058314 119.0456
-3.4260864 1.2192541 -0.25063604 180.63219
-3.3629591 1.2701167 -0.25220671 218.57591
4.709538 1.2013845 -0.26015386 85.076927
-12.085334 1.3113334 -0.21733335 60
-4.7137985 1.3484125 -0.25208253 158.50917
-4.6919265 1.3700001 -0.23977776 118.14815
-3.314301 1.3108811 -0.25137109 198.98112
-3.2547104 1.3611022 -0.25015968 221.47557
5.1851311 1.3360219 -0.24830435 153.39131
5.2342753 1.3773694 -0.25021923 160.67123
-4.7094445 1.4134222 -0.24646667 82.555557
-4.6902347 1.4308356 -0.2530874 77.466019
-3.2561297 1.4509388 -0.25031382 129.59656
5.2833557 1.4195999 -0.24893342 159.26668
5.336246 1.4652821 -0.25148231 157.08235
-3.320977 1.5574619 -0.25106823 183.36932
-3.2962413 1.5761205 -0.24846984 216.69879
5.3897738 1.5086818 -0.26136366 152.77274
5.4530663 1.5590688 -0.24877462 148.59804
-3.2443707 1.6382027 -0.25057441 252.26909
-3.1868322 1.6876942 -0.25028571 254.52597
5.553031 1.641464 -0.25084212 144.47369
5.6088581 1.6889998 -0.25085717 140
-3.1363378 1.7325577 -0.25058368 254.84335
-3.0800488 1.7829608 -0.2505447 254.48779
5.6578493 1.7307771 -0.25130865 139.12346
5.7171922 1.7804997 -0.24926922 138.34616
-3.030616 1.8265501 -0.25074348 254.911
-2.9723914 1.8765616 -0.2503961 255
5.7630572 1.8189613 -0.25057688 139.86539
5.825078 1.8706917 -0.24988462 139.15385
-2.9220223 1.9193984 -0.24981944 255
-2.8630612 1.9691237 -0.25094014 254.92784
5.8808451 1.9173332 -0.25051275 136.05128
5.9410753 1.9671851 -0.2498889 137.35185
-2.8128097 2.0117605 -0.2501421 253.38251
-2.7543588 2.0615833 -0.25080457 255
5.9894557 2.0076821 -0.25081816 138.22728
6.0512109 2.0596364 -0.25425756 138.8485
-2.7056835 2.102833 -0.24665006 255.00002
-2.651036 2.1489646 -0.25035986 254.96556
-2.5960853 2.1950285 -0.25011429 255
6.0757604 2.1038001 -0.25048 192.59999
6.1163802 2.1486418 -0.24870372 99.518517
-2.5457258 2.2376556 -0.25013512 255
-2.4865587 2.2873793 -0.25140998 255
6.2743907 2.2482231 -0.24941665 135.77779
6.319129 2.2866516 -0.25086954 132.73914
-2.4366672 2.3293481 -0.25039384 255
-2.3766177 2.3800271 -0.25042096 255
6.3664017 2.3264 -0.25008574 129.77142
6.4253411 2.3751709 -0.25008568 129.2
-2.3266759 2.4225898 -0.25058883 255
-2.2689929 2.4720619 -0.25044811 255
6.475564 2.4173915 -0.25134787 129.04349
6.5360661 2.4679565 -0.24917778 130.15556
-2.219207 2.5144625 -0.25048271 255
-2.1616478 2.5640056 -0.25049746 255
6.5867696 2.5128462 -0.24353847 125.84616
6.6433902 2.5569754 -0.25404876 127.80487
-2.1105278 2.6080017 -0.25041211 254.99998
-2.0512781 2.6589479 -0.2505078 255.00002
6.6972723 2.6010001 -0.24700001 126.81818
6.7550688 2.6480684 -0.2496364 126.59091
6.8124552 2.6952727 -0.25227275 128.90909
-2.0019999 2.7019563 -0.25030437 255
-1.9498979 2.7455423 -0.25048554 251.64471
-1.8931278 2.7936795 -0.25060216 255
6.8593764 2.7340615 -0.24928126 128.46875
6.9170003 2.7820952 -0.24828573 127.66667
-1.844313 2.8351448 -0.25046381 255
-1.7853715 2.8852592 -0.25052136 255.00002
6.9737439 2.8300002 -0.25025809 130.3871
7.031857 2.8795233 -0.24961908 127.61905
-1.7340916 2.9284503 -0.25043529 255.00002
-1.6741458 2.9789705 -0.25053012 255.00002
7.0792389 2.9199526 -0.25028574 123.52381
7.1374335 2.9702663 -0.25013337 121.96667
-1.6253543 3.0196068 -0.25078025 255
-1.5658664 3.0690858 -0.2503396 254.83437
7.1859994 3.0114546 -0.2499091 122.09091
7.2514644 3.066 -0.25007316 123.29268
-1.5145862 3.1115975 -0.25054678 255
-1.4540607 3.1621692 -0.25036043 254.9357
7.1965003 3.1603334 -0.2145 81.833336
7.2115011 3.1653335 -0.22266667 76.833336
7.3548512 3.1538773 -0.25056097 119.78049
-1.4050003 3.2033925 -0.25108695 255
-1.350579 3.2495837 -0.25046718 254.89128
-1.2954001 3.2964654 -0.25035557 254.66667
7.4516673 3.2347338 -0.25186667 119.93334
7.5046005 3.2788002 -0.27940002 121.8
-1.2468109 3.3380413 -0.25051901 254.38879
-1.1882995 3.3880596 -0.25067532 253.6039
7.5634995 3.3273335 -0.28008336 116.08334
7.6354218 3.385474 -0.24594739 112.26316
-1.1383417 3.4306211 -0.25065601 254.73349
-1.0785657 3.4812334 -0.24985492 252.98825
7.6742506 3.4201667 -0.25508332 119.41667
7.7272105 3.4635794 -0.24963158 119.63158
-1.0287679 3.5234408 -0.25087297 248.10423
-0.97000986 3.5736499 -0.25054523 250.0175
7.7728996 3.5015004 -0.25209999 120.7
7.8356085 3.553822 -0.25128573 121.46429
-0.91902733 3.6170094 -0.25029579 254.38968
-0.86059636 3.666409 -0.25039503 252.69249
7.8951111 3.6040001 -0.24900003 118.88889
7.9553704 3.6559627 -0.25074074 116.11111
-0.8116833 3.7079298 -0.25072119 252.88463
-0.75344229 3.7574601 -0.25043973 244.96194
8.0557051 3.7387774 -0.25092593 115.37037
8.1277771 3.7973337 -0.2517778 124.88889
-0.70290482 3.8007145 -0.25142857 239.61905
-0.65080893 3.8443105 -0.25068092 237.2077
-0.5927611 3.8928945 -0.25325376 234.22388
8.1767778 3.8390002 -0.25100002 125.55556
8.2248888 3.8802228 -0.25033334 127.33334
-0.54395199 3.9342675 -0.2497285 233.44624
-0.48360798 3.9850967 -0.25149676 230.4183
8.2738838 3.9222355 -0.25294119 124.64706
8.3447227 3.9821122 -0.25088888 121.77778
-0.43258363 4.028017 -0.24995023 227.3701
-0.37233409 4.0784268 -0.25075591 225.87325
8.3964996 4.0260005 -0.24987499 118.25
8.448411 4.070941 -0.25182354 118.76471
-0.32384378 4.1190186 -0.24998263 226.05202
-0.26521549 4.1690907 -0.25100356 222.83746
8.4989996 4.1149998 -0.29100001 119
8.541626 4.1497083 -0.24945836 112.70834
-0.21466003 4.2118888 -0.24985568 220.35051
-0.15794943 4.2603722 -0.25053483 215.6076
7.156167 4.2783332 -0.27399999 55
7.2332001 4.2900004 -0.28280002 53.799999
8.6536407 4.2439995 -0.25103998 111.16
-0.10800003 4.3031106 -0.24975003 212.02779
-0.051554482 4.3513207 -0.25072131 212.65517
0.0029999998 4.3976111 -0.25094447 210.83333
7.2220001 4.3049998 -0.29300001 54
8.7511892 4.3253121 -0.25025001 109.25
8.8117504 4.3759999 -0.25599998 110.25
0.045075215 4.4336371 -0.25018945 211.68523
0.11051427 4.489656 -0.25127143 208.89999
8.8718748 4.4267502 -0.24906251 113.75
8.9317503 4.4777503 -0.25300002 117.875
0.15988098 4.5319676 -0.25044498 205.97797
0.2190329 4.5829821 -0.24999176 203.35245
8.9713755 4.5120006 -0.24499997 117.5
9.0354996 4.5652499 -0.25181252 114.9375
0.27126282 4.6269879 -0.25063157 203.91814
0.33011121 4.6768064 -0.25020915 201.03268
9.1443472 4.656827 -0.25134784 114.78261
0.37766996 4.7168412 -0.25075999 198.3
0.43606526 4.7661161 -0.25062314 196.98492
9.2502012 4.7473335 -0.25033337 111.66667
0.48892328 4.8106165 -0.2506769 195.53847
0.5493567 4.8611755 -0.25055948 195.85022
9.3345356 4.8194013 -0.25106668 109.40001
9.4020004 4.8769999 -0.25371429 115.85715
0.64672178 4.9416151 -0.2506099 196.66368
0.70772934 4.9909163 -0.25133336 195.77084
9.4620008 4.9304008 -0.24939999 103.33334
9.5478582 4.9984293 -0.25200003 102.42857
0.75862592 5.031858 -0.25046209 192.84796
0.83574021 5.0847979 -0.25464422 181.99039
0.94916964 5.0439801 -0.25010532 104
1.049261 5.0619569 -0.25001088 80.614136
9.5900002 5.0669999 -0.20200001 87
9.6256247 5.0672498 -0.24781249 108.875
0.86853653 5.1119661 -0.24790402 189.688
1.1468558 5.1421542 -0.25026515 105.61327
1.2055515 5.1902409 -0.25172412 130.72414
9.5622263 5.1510682 -0.23965907 90.704552
9.6318884 5.1294446 -0.26249999 89.444443
9.7208576 5.1427145 -0.27742857 131.71429
1.2573225 5.2336316 -0.25052342 140.54362
1.3184561 5.2846317 -0.25017545 161.78947
9.5719995 5.2268124 -0.24987499 75.8125
9.6222506 5.2672501 -0.28825 67.25
1.3679314 5.3258648 -0.24986151 170.02969
1.4142443 5.3647542 -0.25048891 167.95557
9.6621666 5.3138332 -0.27083334 90.5
9.7223339 5.357667 -0.26233333 69
9.8129997 5.3920002 -0.211 85
9.7826672 5.4070005 -0.273 66
9.8406429 5.4515715 -0.25357145 97.64286
9.9090004 5.493 -0.223 89
9.9626675 5.5556669 -0.27333334 64
10.012 5.5830002 -0.25533333 71.333336
10.061167 5.6298332 -0.26733333 69.166672
10.128333 5.6756668 -0.25333333 79.333336
10.165667 5.7136669 -0.26700002 72.333336
10.226749 5.7617497 -0.26899999 72
10.281333 5.8123336 -0.28133333 68.333336
10.337999 5.8547502 -0.27625 71.25
10.579 5.8639998 -0.222 88
10.45 5.9482498 -0.28550002 69.75
10.6595 5.9265003 -0.22049999 83.5
10.712999 5.974 -0.2245 92
10.541 6.0180001 -0.285 71
10.614 6.0770001 -0.289 73
10.763 6.0193338 -0.22133335 95.666672
10.829 6.0743332 -0.22533333 83.333336
10.677 6.131 -0.29499999 74
10.891666 6.1273336 -0.22966668 93.333336
10.959249 6.1835003 -0.22600001 91.75
11.056501 6.266099 -0.2404 93.5
11.156001 6.3499999 -0.2484 93.599998
11.241249 6.4221249 -0.25562501 88.5
11.300501 6.4702501 -0.23424999 92.25
11.371334 6.5296669 -0.25683331 90.833336
11.456201 6.5976 -0.2538 93.400002
11.481 6.612 -0.204 62
11.530833 6.6598334 -0.25150001 97
8.4594002 6.7830005 -0.29539999 61.200001
8.5440006 6.7884998 -0.29799998 51.5
11.639332 6.7520003 -0.25100002 96
8.3715591 6.8718824 -0.26397061 95.852943
8.4194012 6.8248496 -0.26785001 65.599998
8.5679998 6.8164997 -0.28650001 51
8.6496 6.8468003 -0.28739998 51.600002
8.7370005 6.8671432 -0.28671429 51.14286
11.756 6.8493338 -0.25016665 94
7.9949999 6.9920001 -0.29899999 56
8.0362215 6.9805551 -0.29022223 52.444447
8.1269999 6.9819999 -0.296 51
8.2805719 6.9762859 -0.26100001 69.535721
8.3279772 6.9309764 -0.24218604 97.162788
8.7950001 6.9159999 -0.27249998 51.5
8.8568745 6.9359999 -0.28 52.5
8.9384003 6.9480004 -0.28440002 51.600002
11.835166 6.9151669 -0.25533336 96.5
11.9122 6.9805999 -0.25120002 93.200005
8.0462503 7.0100002 -0.27324998 50.75
8.1749239 7.0591545 -0.2673077 54.615387
8.2355595 7.0397496 -0.24188466 59.576927
8.8070002 7.079 -0.266 53
8.9720001 7.0279999 -0.26699999 51
9.04 7.0089998 -0.285 50
11.990667 7.0463343 -0.24883334 91.666672
8.1940002 7.1115999 -0.2296 53
8.7870007 7.1824999 -0.21950001 51
8.836875 7.1566248 -0.24675 51.375
8.9295006 7.1694999 -0.25349998 57
12.069167 7.1129999 -0.25183332 93.666672
12.145801 7.1792002 -0.24920002 121.2
8.8567505 7.2160001 -0.22499999 51.5
8.9458332 7.2315001 -0.23083334 52.666668
12.233667 7.2515006 -0.24716668 91.166672
8.8800001 7.3049998 -0.20900001 51
8.9099998 7.3109999 -0.22 52
12.350546 7.3513641 -0.25100002 84.545456
12.464201 7.4516001 -0.25460002 99.400002
7.7826667 7.5796671 -0.294 51.666668
8.6099997 7.5100002 -0.27599999 50
12.549 7.5239997 -0.2428 99
7.6859999 7.6830001 -0.264 51
7.7414002 7.672266 -0.287 52.26667
7.8189998 7.6989999 -0.278 50
12.663801 7.6142001 -0.24940002 108.8
12.763 7.6959996 -0.24675 118
7.6682448 7.758019 -0.25539619 62.830189
7.7120004 7.7224288 -0.23185718 79.285721
12.772 7.7010002 -0.294 112
12.860834 7.7766666 -0.25100002 107.33334
7.5718575 7.8564291 -0.2896429 60.64286
7.622273 7.8271513 -0.24154551 57.36364
8.559 7.8740001 -0.287 50
8.7679996 7.8449998 -0.28600001 54
8.8109999 7.823 -0.2545 50
12.9586 7.8582001 -0.24800001 106.8
7.4808187 7.9737282 -0.28609094 66
7.5231247 7.9273748 -0.28487501 61.75
8.4633331 7.9710002 -0.26933336 50
8.5299997 7.9070001 -0.28 50
13.0556 7.9395995 -0.25240001 104.2
7.3910003 8.0882006 -0.28940001 76.800003
7.4306664 8.0446672 -0.28205556 67.055557
8.2508335 8.059166 -0.29133332 50.833336
8.3830004 8.0690002 -0.252 50
8.4139996 8.0389996 -0.259 50
13.135666 8.0108337 -0.24983333 104.5
13.221399 8.0862007 -0.244 107.8
7.3510776 8.155694 -0.27873075 72.653847
7.401 8.1199999 -0.26300001 57
8.1762505 8.1624994 -0.26550001 50.75
8.2309999 8.1859999 -0.27700001 50
13.315 8.1662006 -0.24980001 97.200005
7.2718797 8.2665596 -0.27516001 76.439995
7.3107777 8.2193336 -0.26999998 69.555557
8.2630005 8.2386665 -0.24733333 50
8.3552504 8.2756252 -0.25918752 50
13.417 8.2517996 -0.25600001 95.800003
7.1852856 8.3862867 -0.28414285 91.857147
7.231442 8.3445301 -0.26344123 70.088234
8.3481436 8.3082867 -0.21414287 50.000004
8.4226665 8.328001 -0.22133332 50
9.0950003 8.3450003 -0.30000001 50
13.5364 8.3488007 -0.244 94.200005
7.159667 8.4567566 -0.25846666 73.844444
7.2238336 8.4258881 -0.21933334 53.166668
8.0715551 8.4556665 -0.27055559 55.777779
8.1148338 8.4300003 -0.22983335 51.333336
8.9873343 8.4786673 -0.29366669 50.666668
9.0139999 8.4399996 -0.29500002 50.5
13.6538 8.4452 -0.24980001 82.800003
7.0795598 8.5707998 -0.26823997 92
7.1252222 8.5349436 -0.23652776 79.638893
7.9802499 8.5695 -0.27850002 57.25
8.0250998 8.5334997 -0.24519999 53.700001
8.6716671 8.5306664 -0.23816667 50
8.7471542 8.5574617 -0.26330772 50.307693
8.8205004 8.5865002 -0.27249998 51
8.9368181 8.545455 -0.29009089 51.545456
12.884 8.5865002 -0.28150001 50
12.917 8.5854998 -0.27849999 50
13.770599 8.5412006 -0.25659999 86.599998
6.9957504 8.68925 -0.2845 91.5
7.0432725 8.6469631 -0.24756362 93
7.881 8.6900005 -0.27166668 57
7.9376674 8.6410837 -0.24641669 54.25
8 8.6009998 -0.211 50
8.7880001 8.6090002 -0.21849999 52
8.8542366 8.6140585 -0.23952945 54.588234
8.9220018 8.6240005 -0.25866666 53.333332
12.753858 8.6531429 -0.28371429 53.57143
12.859751 8.6450624 -0.26556247 54.0625
12.938111 8.6360006 -0.23933335 54.555557
13.511 8.665 -0.20299999 93
13.748039 8.6500778 -0.2493462 122.11539
13.8311 8.6150999 -0.24560001 104.6
6.9688168 8.7562962 -0.25902274 93.704552
7.0106363 8.7215462 -0.22336364 95.727272
7.697 8.7709999 -0.236 51
7.796 8.783 -0.26050001 56.5
7.8451667 8.7495003 -0.26283336 56
13.559 8.7200003 -0.208 85
13.729274 8.7278175 -0.26218182 87.272728
6.8923335 8.8896666 -0.29266667 69.666672
6.9258146 8.8467541 -0.24675509 83.510201
7.7709999 8.8110008 -0.25700003 55
13.826 8.8260002 -0.227 75
6.8799467 8.9479456 -0.2549189 61.324326
6.9039998 8.9197502 -0.2085 51
7.7720003 8.9814997 -0.234 51
8.5921669 8.9855003 -0.26916668 57.166668
8.6168461 8.9560766 -0.26769233 56.23077
5.74681 9.0524263 -0.25095594 160.75
5.8428636 9.0506353 -0.24904545 85.181824
6.8724999 9.0290718 -0.25900003 58.285717
6.9000001 9.0550003 -0.206 52
7.8664002 9.0690002 -0.2198 50
8.5480309 9.0461226 -0.26142427 56.666668
13.641 9.0170002 -0.252 53
5.6690578 9.1567059 -0.25052941 224.86275
5.7030001 9.1090012 -0.24914289 225.14287
5.9395905 9.1269093 -0.25150001 109.81818
6.008286 9.1811428 -0.24928574 122.28572
6.8860002 9.1079998 -0.30000001 56
7.9406672 9.118 -0.22766668 50
8.0179996 9.1829996 -0.222 50
8.4638672 9.1527004 -0.25729999 56.833336
8.5083332 9.1023331 -0.24966666 55.333336
5.5800786 9.2706852 -0.2506316 213.23685
5.6200352 9.2181387 -0.25162068 227.93103
6.0601435 9.2219286 -0.24778572 122.71429
8.3787146 9.26581 -0.24642856 58.857143
8.4140005 9.2226353 -0.24463637 55.727276
5.4896665 9.3876677 -0.25727779 240.61111
5.5297174 9.3365669 -0.24902183 234.19566
8.1960001 9.3754997 -0.21799999 51
8.2682514 9.3414993 -0.23325002 56.928574
8.3480778 9.3132315 -0.2323077 57.615387
5.4456148 9.4435778 -0.24844235 241.86539
8.2299995 9.418334 -0.20533334 53.666668
14.66 9.4020004 -0.26499999 69
14.7515 9.4869995 -0.28200001 67.5
14.795 9.5670004 -0.28200001 66
14.831 9.5649996 -0.27900001 81
15.231 9.8760004 -0.27399999 81
15.298 9.9200001 -0.29800001 71
15.335 9.9709997 -0.28099999 75
15.547501 10.1375 -0.2545 61.5
15.650499 10.121 -0.21599999 103
15.6355 10.2225 -0.28299999 66.5
15.8075 10.2505 -0.22499999 102
15.725 10.31 -0.27900001 60
16.433001 10.773 -0.21699999 81
16.750999 11.042 -0.204 87
17.266001 11.476 -0.20299999 86
17.819668 11.941001 -0.22800002 82.666672
18.042751 12.13125 -0.23199999 92.5
18.030113 12.252337 -0.25083336 113.77778
18.120001 12.208 -0.244 92
17.952358 12.349857 -0.24285716 119.71429
17.861309 12.45777 -0.24600001 122.30769
17.787334 12.545001 -0.255 134
17.811274 12.540181 -0.25227273 106.18182
18.108999 12.84 -0.29699999 61
10.041183 13.255864 -0.24690911 221.72728
9.987834 13.320334 -0.23783335 214.16667
10.003 13.3 -0.25 245.5
22.625999 16.171 -0.222 61
22.719 16.194 -0.213 65
22.492001 16.290001 -0.25999999 246.66667
22.525335 16.249334 -0.249 224.66667
22.432817 16.360456 -0.24572729 253.9091
22.348801 16.457201 -0.25229999 242.60001
23.08 16.473499 -0.27500001 72.5
22.27 16.554125 -0.2545 252.75
22.308001 16.500999 -0.28 255
23.055601 16.548201 -0.24460001 106.2
22.167999 16.679001 -0.25933334 255
22.212002 16.6255 -0.24433333 255
22.080999 16.766335 -0.24600002 139
22.121801 16.7362 -0.24559999 255
22.537001 17.179501 -0.2615 208.5
22.4725 17.264833 -0.25033334 255
22.506001 17.223499 -0.25400001 255
22.3815 17.3745 -0.24650002 255
22.4296 17.3172 -0.25780001 255
22.278999 17.497665 -0.24033335 255
22.327625 17.439877 -0.25850001 255
6.3829999 17.58325 -0.25049999 211
6.4367776 17.559444 -0.25033337 182.22223
22.232779 17.552 -0.25344443 255
6.2950001 17.686001 -0.24950001 189
6.3390632 17.635063 -0.25056249 204.875
6.5615382 17.65354 -0.24876924 128.46155
22.149729 17.651363 -0.25054544 255
6.2425232 17.747526 -0.24938096 207.4762
6.6524997 17.73275 -0.25712499 105.875
6.7090001 17.781 -0.25300002 85.75
22.059275 17.761454 -0.24645457 255
6.15275 17.853651 -0.2502 214.95
6.7470002 17.813 -0.24699999 76.5
21.971001 17.867001 -0.25100002 255
22.005333 17.826 -0.25933334 255
6.0666928 17.958387 -0.24884616 213.92308
6.0999999 17.918499 -0.237 214.25
21.882002 17.973 -0.25299999 255
21.925833 17.921667 -0.24633335 255
6.0282497 18.005249 -0.255 212.5
21.786499 18.083668 -0.259 240.33334
21.8335 18.030001 -0.24133334 255
21.727287 18.149857 -0.24085714 210.85715
21.663 18.212 -0.222 148
5.6782498 18.849749 -0.23475 51.25
5.7049999 18.830999 -0.222 52
6.2909999 18.868 -0.211 52
6.277 18.9445 -0.21950001 51.5
5.4828005 19.078201 -0.23899999 53
5.5458331 19.043251 -0.23958336 52.083336
6.2639999 19.027 -0.20299999 51
5.3696666 19.192667 -0.25266668 68.222221
5.4320998 19.1371 -0.24200001 52.100002
6.2795 19.1535 -0.22400001 51.5
5.2945004 19.297001 -0.23449999 52.5
5.337728 19.247726 -0.24672727 59.454548
6.2084999 19.222 -0.21599999 52
6.3804998 19.27775 -0.28200001 61
6.4229999 19.263 -0.29300001 63
5.2542944 19.352528 -0.24835292 52.64706
6.2746668 19.359167 -0.27383333 63.166668
6.3291664 19.332832 -0.26999998 60.333336
6.4000001 19.357 -0.25299999 54
5.1807146 19.415144 -0.25785717 51.285717
6.1738334 19.477667 -0.27350003 70.5
6.2258186 19.431454 -0.24972725 62.090912
5.8490005 19.541 -0.226 52
6.0758338 19.581001 -0.26449999 71
6.1418467 19.535309 -0.2436154 70
5.8316665 19.663666 -0.264 53
5.9684 19.647001 -0.25980002 53.200001
6.0398331 19.638584 -0.244 68.666672
5.8146667 19.757999 -0.27433336 51.666668
5.6665001 19.820999 -0.287 52
5.7309999 19.812 -0.28799999 52
5.8109999 19.806 -0.296 53
5.9829998 20.112 -0.204 51
5.9889998 20.225 -0.212 52
6.1726665 20.781334 -0.24933335 53
8.1650009 21.421667 -0.2556667 52
8.2353334 21.471334 -0.26283333 52.166668
11.042001 21.461666 -0.25022221 220
11.10925 21.459999 -0.25350001 118.25
8.2700005 21.507999 -0.235 51
8.3486671 21.550667 -0.27966666 52
8.4250002 21.587 -0.296 53
10.967771 21.54254 -0.24776924 186.61539
11.172251 21.51475 -0.2475 99.75
11.240001 21.579334 -0.26033336 88
8.4577141 21.635715 -0.2487143 51.857143
8.5319996 21.698999 -0.285 52
10.869499 21.652401 -0.24860001 146.10001
10.911 21.605751 -0.24700001 160.75
11.309334 21.645666 -0.25366667 72.666672
8.5839996 21.753 -0.27900001 51
10.770572 21.763432 -0.24614286 110.42857
10.813002 21.716 -0.25683334 129.83334
8.6720009 21.839666 -0.28133333 52
10.681499 21.86425 -0.25112501 96.875
10.725 21.814499 -0.25300002 100.33334
8.7518578 21.945431 -0.25057143 53.285717
8.8055 21.988501 -0.2475 53
8.3889999 22.0655 -0.243 52
8.4329996 22.098 -0.25099999 52
8.7189999 22.011999 -0.21799999 51
8.8219995 22.028 -0.20200001 60
8.5704994 22.248001 -0.2245 52
8.642334 22.252335 -0.23366666 52.666668
11.664333 22.257336 -0.25566667 56
11.701 22.259001 -0.24933332 60
8.6435003 22.3125 -0.215 53
11.765667 22.313335 -0.24533334 60
11.828334 22.365002 -0.23800001 62.333336
9.6537495 22.453751 -0.24924999 77.25
11.89275 22.418499 -0.24875 61
11.958 22.472668 -0.25633335 61.333336
12.0555 22.553833 -0.24766669 59
12.155334 22.637669 -0.23633334 56.666668
12.220667 22.691 -0.26366669 56
12.289667 22.750334 -0.25700003 55.666668
12.357666 22.807333 -0.25533336 55
12.424666 22.862667 -0.24766669 56
12.496 22.925335 -0.24266666 56.666668
12.564001 22.981335 -0.23700002 56.333336
9.9429998 23.047253 -0.24949999 96.5
12.638334 23.048666 -0.266 59
12.746166 23.141167 -0.25583333 72.5
12.849001 23.223669 -0.244 92
12.916 23.275999 -0.23966667 86
12.984 23.329666 -0.26533335 72.333336
13.054667 23.387335 -0.26066667 59.333336
13.127334 23.448334 -0.25133336 56
13.195 23.5 -0.24466667 113
13.264334 23.552999 -0.24100003 89.666672
13.357 23.649 -0.235 85.666672
13.4842 23.762197 -0.2536 98.200005
13.489 23.812 -0.30000001 84
13.573001 23.820999 -0.25333333 118.33334
12.179168 29.079998 -0.24516669 127.66667
12.23 29.048 -0.25599998 91.5
12.0745 29.189999 -0.24950001 128
12.1214 29.137201 -0.25219998 125.4
12.297 29.1045 -0.248 80
12.368334 29.170668 -0.259 78
20.222601 29.1418 -0.24860001 215.60001
20.323 29.176001 -0.26449999 105
11.903 29.294001 -0.27599999 91
12.0276 29.242599 -0.25439999 120.8
12.437334 29.231667 -0.25100002 75.666672
20.144859 29.244287 -0.25242859 191.85715
20.4415 29.268499 -0.25650001 82
11.8654 29.3508 -0.2586 83.800003
11.95 29.340336 -0.245 72.666672
12.019501 29.368999 -0.27950001 85.5
20.067144 29.345144 -0.24885717 152.71429
11.841002 29.425667 -0.23533332 65.333336
12.049 29.441999 -0.22 67
19.955999 29.478998 -0.25740001 122.6
20.004 29.423 -0.25849998 135
19.883499 29.563499 -0.24950001 100
19.9135 29.528 -0.24149999 101.5
13.333 31.118668 -0.24533334 113.33334
13.552 31.304001 -0.24150001 108
13.625999 31.366333 -0.25533336 109.33334
13.696333 31.420668 -0.249 106
13.914 31.593 -0.249 107
13.9855 31.647499 -0.241 96
14.138334 31.777668 -0.24533336 107
14.2155 31.842499 -0.259 111
14.292 31.907501 -0.249 111
14.3675 31.967499 -0.23999999 103
14.444 32.030334 -0.25333333 109.66667
14.521999 32.095001 -0.264 108.5
14.6015 32.163002 -0.257 101.5
14.6825 32.233501 -0.24699999 105.5
14.764 32.3055 -0.244 104
14.844334 32.372665 -0.25466666 110.33334
14.941501 32.4505 -0.24625 107.75
15 32.495998 -0.28400001 106
15.083 32.57 -0.257 107.5
15.168 32.6455 -0.24849999 99
15.252501 32.720001 -0.2375 98.5
15.334333 32.787334 -0.24866667 103.66667
15.415 32.852501 -0.26300001 114
15.496 32.917 -0.25299999 114.5
15.5795 32.986 -0.245 105.5
15.667 33.064499 -0.234 96.5
15.750999 33.134335 -0.24700002 104.33334
24.690001 33.172501 -0.25099999 145.5
24.723 33.130001 -0.23699999 146.5
15.837 33.2075 -0.2665 107.5
15.922501 33.278999 -0.257 106.5
24.5875 33.296501 -0.23 105
24.6395 33.235252 -0.26899999 145.75
16.0065 33.3465 -0.24950001 105.5
24.5345 33.355751 -0.24599999 102.5
16.091499 33.417 -0.2405 104
16.181499 33.494999 -0.2335 99.5
24.480499 33.414501 -0.26300001 99
16.274668 33.580334 -0.248 104.66667
16.3685 33.665001 -0.2615 108
30.847 42.216 -0.23800001 63
31.406 43.094002 -0.25999999 162
31.339001 43.172752 -0.248 161.75
31.271999 43.251999 -0.23999999 153
31.182499 43.357498 -0.23649999 142
31.226999 43.303001 -0.252 150
31.091999 43.461502 -0.26550001 155.5
31.137501 43.408501 -0.25150001 164.5
31.025002 43.541 -0.24950001 152.5
30.935251 43.646751 -0.244 156.25
30.853003 43.743668 -0.25400001 145.66667
30.751333 43.873001 -0.24066667 125
29.602501 44.739502 -0.26300001 95
29.962999 44.792999 -0.23999999 108
30.01 44.741501 -0.259 132
29.948 44.893002 -0.259 105
29.7945 44.906502 -0.252 110
29.9065 44.952499 -0.23899999 150.5
-8.7139997 -19.101 -0.121 51
-9.7033339 -19.007668 -0.12833333 193.33334
-9.6708012 -19.0382 -0.1238 152
-9.5909996 -19.021999 -0.106 78
-9.7487345 -18.955135 -0.15106666 204.33334
-9.840868 -18.8426 -0.15213335 245.40001
-9.7963333 -18.896 -0.15366668 244.33334
-9.9250011 -18.739 -0.15508333 250.25
-9.8887501 -18.784 -0.14424999 249
-10.025999 -18.617001 -0.15625 247.75
-9.981637 -18.670092 -0.14581819 249.63637
-8.6534996 -18.68675 -0.1815 52.75
-8.5698004 -18.634802 -0.16159999 51.400002
-10.073 -18.559092 -0.14718182 236.27274
-8.4890003 -18.5455 -0.1345 51
-7.2340002 -17.458 -0.161 53
-7.1929998 -17.4205 -0.16600001 53.5
-7.1386003 -17.363201 -0.13420001 54.200001
-7.0543337 -17.311001 -0.12366667 55.666668
-7.0106673 -17.286667 -0.14566666 55.333336
-6.9431667 -17.245335 -0.13350001 54.666668
-6.8580003 -17.188751 -0.1195 53
-6.948 -16.786333 -0.19066668 53.666668
-6.882 -16.727501 -0.1785 54
-6.8218002 -16.676201 -0.16340001 54.200001
-6.7547498 -16.626249 -0.16325 54.5
-6.704 -16.5905 -0.15799999 54.5
-6.6700001 -16.566 -0.139 55
-12.915501 -15.11625 -0.15025 254.25
-12.875501 -15.165813 -0.152 245.875
-12.963452 -15.05705 -0.15155001 254.75
-13.0432 -14.958452 -0.1508 253.10001
-13.139552 -14.841601 -0.14945 255
-13.091 -14.9 -0.1525 254.75
-13.228001 -14.734814 -0.15099999 255
-13.188 -14.783 -0.1585 255
-13.321889 -14.622334 -0.15600002 255
-13.282749 -14.668914 -0.14825 255
-13.412 -14.5125 -0.154 255
-13.372187 -14.561124 -0.14975001 255
-13.459399 -14.454149 -0.14910002 255
-13.547709 -14.348544 -0.15341668 255
-15.7885 -14.216251 -0.14225 112.5
-13.635401 -14.2431 -0.15109999 255
-15.842198 -14.156751 -0.1477 125.9
-13.730999 -14.128001 -0.15708333 254.91667
-13.690999 -14.175626 -0.14362501 255
-15.926908 -14.056637 -0.15354544 134.72728
-15.894 -14.095501 -0.15175 129
-13.819002 -14.021443 -0.1551111 255
-13.778666 -14.070583 -0.14958334 254.91667
-16.025818 -13.927001 -0.15072729 116
-15.98625 -13.981 -0.15024999 122.5
-13.906 -13.918 -0.16125 255
-13.866 -13.965438 -0.1496875 255
-16.121199 -13.826001 -0.1472 130.10001
-16.076101 -13.871699 -0.15470001 121.6
-14.002 -13.804 -0.14524999 255
-13.953998 -13.860999 -0.14995001 255
-16.214169 -13.713501 -0.14216667 132.33334
-16.166502 -13.757584 -0.15983334 125.33334
-14.050051 -13.748001 -0.14995 255
-16.303669 -13.602668 -0.15233333 125.66667
-16.260334 -13.654801 -0.14886668 127.66667
-14.137562 -13.643002 -0.14999999 255
-14.098 -13.690499 -0.15099999 255
-16.358635 -13.535091 -0.14472727 124.54546
-16.299999 -13.6 -0.13500001 119
-14.231268 -13.531403 -0.15440001 254.93335
-14.18525 -13.586374 -0.155375 255
-16.429399 -13.448335 -0.14913334 119.86668
-16.386 -13.497667 -0.15033334 119.66667
-15.32425 -13.453001 -0.16024999 80.75
-14.319334 -13.424166 -0.14683333 254.66667
-14.277446 -13.475223 -0.15322223 254.77779
-16.530573 -13.320715 -0.14671429 125.85715
-16.476376 -13.382251 -0.14975001 123.375
-14.41325 -13.309501 -0.15374999 254.75
-14.373766 -13.358001 -0.14988233 254.88235
-16.620144 -13.221144 -0.14528571 131.28572
-16.575911 -13.27709 -0.15218182 136.63637
-14.458138 -13.254955 -0.14959091 251.81819
-16.712749 -13.10975 -0.145 132.5
-16.660751 -13.170834 -0.15433334 130.16667
-14.533588 -13.170117 -0.15029414 216.05882
-9.6340008 -13.1215 -0.16433333 51.833336
-9.5411863 -13.135742 -0.15214814 54.777779
-9.485857 -13.177428 -0.13757144 53.428574
-8.809 -13.116 -0.16599999 50
-16.801001 -13.009 -0.186 131
-16.761223 -13.049888 -0.14694442 124.61111
-9.5663338 -13.098333 -0.13833334 54.333336
-9.342001 -13.018667 -0.17966667 50.333336
-9.29 -13.004 -0.14399999 50
-16.832401 -12.952669 -0.15660003 118.06667
-9.3030005 -12.987 -0.18799999 51
-9.2401819 -12.984271 -0.17263636 51.090912
-16.940998 -12.839531 -0.14558823 120.2353
-16.8885 -12.875 -0.17899999 101
-17.030251 -12.733668 -0.15333334 127.41667
-16.98925 -12.783499 -0.153 122.5
-17.118145 -12.627143 -0.14528571 121.71429
-17.0795 -12.673 -0.14583334 123.83334
-16.035 -12.611 -0.14399999 77
-17.2115 -12.516001 -0.14524999 118
-17.166067 -12.568601 -0.15306668 120.40001
-15.0975 -12.5645 -0.14074999 78
-9.4040003 -12.585 -0.113 50
-8.4548464 -12.541694 -0.15669231 51
-17.237373 -12.484875 -0.15387499 121.625
-8.5494556 -12.432818 -0.14650001 52.090912
-16.205999 -12.386 -0.176 78
-15.24675 -12.335751 -0.14675 116.25
-8.6271667 -12.342083 -0.16191667 50
-8.5809002 -12.372499 -0.1699 50.600002
-16.388 -12.17 -0.108 80
-9.0120001 -11.920001 -0.12216668 51.166668
-8.9792318 -11.935692 -0.15061538 50
-9.0443935 -11.854396 -0.15114287 52.678574
-8.9873333 -11.882 -0.19100001 50
-15.956665 -11.449096 -0.15180953 215.33334
-16.037611 -11.349889 -0.15166667 253.66667
-16 -11.3905 -0.1235 253.5
-16.135136 -11.232001 -0.15380003 254.86668
-16.090374 -11.287875 -0.15262499 254.625
-16.2225 -11.12425 -0.14591667 254.83334
-16.180445 -11.175 -0.15333334 254.77779
-16.310751 -11.019751 -0.15037499 254.125
-16.270847 -11.067463 -0.149 254.69232
-8.5292959 -11.037853 -0.14996296 121.25926
-16.36655 -10.95285 -0.1498 254.95
-8.6256561 -10.928411 -0.14913793 93.448273
-8.5777225 -10.982778 -0.15022223 107.61111
-16.446251 -10.8572 -0.15319999 254.60001
-9.1136665 -10.803001 -0.155 60.5
-8.7183132 -10.823999 -0.15243751 90.5625
-8.6783485 -10.868482 -0.14973913 90.434784
-16.541697 -10.741901 -0.14659999 253.85001
-16.494249 -10.8 -0.15899999 253.5
-9.0125008 -10.710499 -0.15133333 59.666668
-8.8140574 -10.718999 -0.15288888 91.111115
-8.7663803 -10.771446 -0.14989656 90.413795
-16.628687 -10.635687 -0.15268749 254.875
-16.588499 -10.68375 -0.1415 254.75
-8.9320002 -10.642166 -0.1455 64.666672
-8.8672276 -10.661882 -0.14985713 103.62857
-16.72489 -10.519001 -0.153 255
-16.684338 -10.568333 -0.14641666 254.41667
-16.810751 -10.413 -0.13850001 254.25
-16.771437 -10.461685 -0.151875 254
-16.857801 -10.35435 -0.1478 255
-16.936901 -10.256701 -0.14924999 254.05
-17.0345 -10.1412 -0.15110001 251.90001
-16.985001 -10.199 -0.1495 254.5
-17.132 -10.025332 -0.14916669 248.5
-17.091751 -10.073626 -0.1525 251.5
-17.243 -9.9306259 -0.14775001 116.375
-17.116001 -9.9437504 -0.15425 69.625
-17.31625 -9.8286247 -0.14500001 148.875
-17.252462 -9.8619995 -0.15323077 133.92308
-17.026501 -9.8485003 -0.13975 74.75
-5.0120001 -9.849 -0.122 51
-4.9775 -9.8264999 -0.11499999 51
-17.414167 -9.7160015 -0.15283333 141.5
-17.362499 -9.7398748 -0.141 125.75
-5.0433335 -9.7375002 -0.17266667 51
-4.9410772 -9.7486162 -0.13046153 51
-4.8617501 -9.7287502 -0.11875 51.166668
-4.7544999 -9.717 -0.103 51
-17.439177 -9.6450586 -0.15147059 151.70589
-5.034667 -9.6813335 -0.19166666 51
-4.9497781 -9.659112 -0.17850001 51.222221
-4.8553338 -9.6485729 -0.16166665 51.761906
-4.7487597 -9.6700792 -0.12999998 51.16
-4.6550007 -9.6465006 -0.12166665 50.083336
-4.5627999 -9.6146002 -0.1068 50.200001
-17.519001 -9.5826664 -0.17133334 121
-17.4925 -9.59725 -0.15550001 145.75
-4.843667 -9.5966663 -0.18566667 51.666668
-4.7576365 -9.5501814 -0.17381817 52.36364
-4.6375003 -9.5616245 -0.15200001 50.25
-4.5504665 -9.5532665 -0.13173334 50.000004
-4.4990001 -9.5564995 -0.126 50
-4.7207999 -9.4814005 -0.18480001 54.799999
-4.646625 -9.4511871 -0.18268749 53.5
-4.5772223 -9.4464445 -0.18733333 52.111111
-4.8010001 -9.3179998 -0.122 52
-4.7554998 -9.3299999 -0.1025 51.5
-4.8295002 -9.2367496 -0.16150001 51.25
-4.7590003 -9.2645998 -0.1252 51
-4.3410001 -9.2360001 -0.197 50
2.0145001 -9.2110004 -0.1075 64.5
-4.8306665 -9.1760006 -0.18533334 51
-4.7810001 -9.1836662 -0.16133334 51
-3.8199999 -9.1065006 -0.105 56.5
2.0654829 -9.1624479 -0.12731034 159.62068
2.1155157 -9.1179991 -0.14829034 207.32257
-16.038334 -9.0516663 -0.15022221 68.666664
-3.9054999 -9.0065002 -0.111 69
-3.8596971 -9.0437689 -0.13297673 67.558136
-3.789 -9.0799999 -0.102 50
2.1646152 -9.0755997 -0.15034617 242.63463
2.2249999 -9.0240965 -0.15150002 244.69232
-4.1855001 -8.9344997 -0.109 50
-4.0117497 -8.9117498 -0.11 65
-3.9418895 -8.9430962 -0.14173016 68.46032
-3.8904288 -8.9890003 -0.15857144 69.285721
-1.8055 -8.9130001 -0.163 50
-1.7656113 -8.9432783 -0.13599999 50.222221
-1.6605 -8.9338341 -0.12633334 52.166668
2.2792563 -8.9773006 -0.15074417 244.86046
2.3383498 -8.9275188 -0.15123335 243.70001
-4.2301874 -8.8543129 -0.16318749 50
-4.153542 -8.8499165 -0.15420833 50.291668
-4.0450802 -8.8485479 -0.15040325 60.596771
-3.9767389 -8.876174 -0.17447826 68.826088
-1.8122 -8.8811998 -0.15020001 50
-1.701 -8.8809996 -0.118 58
-1.68165 -8.8817511 -0.13299999 62.25
2.3876154 -8.8857708 -0.15042305 244.11539
2.4458199 -8.8363066 -0.14988461 246.44872
-4.23 -8.7989998 -0.19400001 51
-4.1338573 -8.7751436 -0.19314286 50.57143
-4.0752501 -8.7854996 -0.19037502 59.5
2.4939997 -8.7957764 -0.15155555 247
2.5518856 -8.7469912 -0.1512083 248.29167
-2.9872499 -8.6069994 -0.1095 51
-2.6321428 -8.6565723 -0.11114286 50.000004
-2.5955 -8.6270008 -0.111 50
2.6517694 -8.663373 -0.14974712 246.79311
2.7128849 -8.612155 -0.15142308 246.03847
-3.1819999 -8.5139999 -0.114 50
-3.0372968 -8.5492964 -0.15083334 50.981483
-2.9615788 -8.5511045 -0.13289474 50.842106
-2.891 -8.5100002 -0.103 50
-2.5658002 -8.5740004 -0.12819999 50
1.7645 -8.5810003 -0.19850001 50
2.7647741 -8.5688715 -0.15080284 247.57745
2.8254318 -8.5174332 -0.15088634 248.84091
-18.4585 -8.427125 -0.16025001 195
-3.5829999 -8.4069996 -0.168 61
-3.1257501 -8.4328747 -0.15450001 51.125
-3.0684545 -8.4511127 -0.14586365 51.795456
-2.9309173 -8.4759169 -0.15625 50.083336
-2.866111 -8.4391117 -0.12844443 50
2.8763201 -8.4742832 -0.15081133 249.98114
2.9357152 -8.4244461 -0.15104762 249.71429
-18.504999 -8.3780003 -0.109 210
-18.485716 -8.3855715 -0.15014285 185.00002
-3.6383333 -8.333334 -0.18099999 66.333336
-3.586 -8.3830004 -0.168 63
-3.1215835 -8.3517513 -0.16579166 51.375
-3.0846667 -8.3739443 -0.12983334 51.444447
-2.832 -8.3636427 -0.14921431 50.000004
-2.7670002 -8.3259993 -0.11909091 50
-1.630625 -8.3373747 -0.15387499 50
2.9817035 -8.3857794 -0.15088889 251.55556
3.0407658 -8.3361807 -0.15017778 251.28889
-18.625555 -8.2267771 -0.14455555 184.66667
-18.583185 -8.2758179 -0.15227275 175.72728
-3.904 -8.2270002 -0.148 50
-3.119 -8.2510004 -0.184 52
-2.7373888 -8.2563887 -0.13838887 50.055557
-2.6737275 -8.2239094 -0.11909091 50
-2.3196666 -8.2450008 -0.10733333 54
-2.2969999 -8.2299995 -0.107 58
-1.6589231 -8.2439995 -0.16215385 50
-1.599 -8.2930002 -0.133 50
3.0909998 -8.2939997 -0.14777778 251.77779
3.1493692 -8.2449379 -0.15042591 250.84259
-18.716572 -8.1199999 -0.14371429 189.14287
-18.672155 -8.1684628 -0.15292309 177.38463
-15.033999 -8.1990004 -0.15280001 56.600002
-14.9092 -8.1070004 -0.15460001 67.599998
-3.0728002 -8.1169996 -0.1102 52.200001
-2.704 -8.1960001 -0.149 50
-2.6400001 -8.1556835 -0.13484211 50
-2.575125 -8.1217499 -0.1145 50
3.2517681 -8.1580353 -0.15072724 251.24242
3.309263 -8.1098967 -0.1488421 253.89474
-18.752251 -8.0679178 -0.15266667 167.58334
-14.869 -8.0609999 -0.15000001 255
-3.2690001 -8.0019999 -0.19499999 50
-3.0926666 -8.0786667 -0.10533333 52
-2.6156669 -8.0886669 -0.15333335 50
-2.5453331 -8.0581112 -0.13116667 50
-2.4879999 -8.0305004 -0.11325 50
3.3586469 -8.0684748 -0.15110976 254.28047
3.4199555 -8.0167408 -0.15089129 254.97827
-18.856161 -7.947526 -0.15405262 183.05263
-14.7755 -7.9860001 -0.15350001 67.5
-14.671201 -7.9057999 -0.14500001 74.200005
